90
21.556646 -2.493656 45.810805 255 0 0 255
19.416950 -1.782195 45.776503 255 0 0 255
18.317948 -1.439081 45.855958 255 0 0 255
17.720540 -1.236519 45.898981 255 0 0 255
17.619074 -0.972505 46.314624 255 0 0 255
17.927247 -1.272272 46.208842 255 0 0 255
18.018837 -1.487093 46.057070 255 0 0 255
18.024321 -1.472230 46.055592 255 0 0 255
18.015756 -1.382440 46.078163 255 0 0 255
18.008825 -1.376761 46.083815 255 0 0 255
17.977836 -1.389853 46.105438 255 0 0 255
18.063805 -1.388330 46.049543 255 0 0 255
18.006547 -1.515879 46.064060 255 0 0 255
17.905299 -1.360131 46.423662 255 0 0 255
17.791319 -1.381671 46.416277 255 0 0 255
17.801606 -1.495153 46.445771 255 0 0 255
18.442963 -1.696360 46.424660 255 0 0 255
19.167563 -2.006830 46.421332 255 0 0 255
19.577604 -2.340907 46.415804 255 0 0 255
19.882823 -2.848134 46.411573 255 0 0 255
20.051677 -3.816455 46.374791 255 0 0 255
20.217743 -5.435855 46.327936 255 0 0 255
20.351246 -6.126483 46.292968 255 0 0 255
20.337866 -6.632269 46.280084 255 0 0 255
19.943405 -7.473308 46.277752 255 0 0 255
19.450000 -7.870822 46.311781 255 0 0 255
18.980548 -8.033587 46.317487 255 0 0 255
19.968937 -8.487016 46.277370 255 0 0 255
21.243788 -8.731608 46.277689 255 0 0 255
22.395776 -9.034939 46.256657 255 0 0 255
23.122061 -9.465280 46.267992 255 0 0 255
23.245465 -10.246991 46.231146 255 0 0 255
23.043200 -10.679098 46.210391 255 0 0 255
21.757066 -11.267916 46.247276 255 0 0 255
21.361118 -11.161972 46.255195 255 0 0 255
20.387677 -10.827982 46.236289 255 0 0 255
19.627023 -10.682600 46.272369 255 0 0 255
18.917638 -10.559231 46.266799 255 0 0 255
17.700397 -10.978989 46.211388 255 0 0 255
17.141728 -11.568245 46.247164 255 0 0 255
17.067691 -11.695737 46.260471 255 0 0 255
16.468011 -12.751861 46.227041 255 0 0 255
15.860589 -13.308618 46.402835 255 0 0 255
15.119328 -13.133240 46.405557 255 0 0 255
14.036319 -13.097062 46.385395 255 0 0 255
13.812545 -13.443910 46.377794 255 0 0 255
13.862462 -13.591953 46.360372 255 0 0 255
14.157238 -13.932457 46.370081 255 0 0 255
15.166736 -14.345965 46.376447 255 0 0 255
16.514614 -14.392023 46.370753 255 0 0 255
16.572658 -14.386484 46.377100 255 0 0 255
17.946310 -14.576054 46.345868 255 0 0 255
18.252195 -14.752200 46.184876 255 0 0 255
18.577133 -15.275626 46.172596 255 0 0 255
19.881715 -15.773720 46.135935 255 0 0 255
20.514785 -15.683836 46.162668 255 0 0 255
21.179266 -15.505219 46.153617 255 0 0 255
21.611417 -15.395753 46.153126 255 0 0 255
22.075830 -14.814045 46.131833 255 0 0 255
22.496445 -13.887333 46.177027 255 0 0 255
22.725515 -13.415773 46.202714 255 0 0 255
23.160423 -11.830890 46.177543 255 0 0 255
23.520546 -10.645897 46.217793 255 0 0 255
23.585984 -10.431438 46.225603 255 0 0 255
24.389824 -9.154819 46.209804 255 0 0 255
24.694790 -8.932873 46.217757 255 0 0 255
25.571193 -7.877501 46.221339 255 0 0 255
26.079529 -6.667839 46.255429 255 0 0 255
26.150811 -6.484557 46.266759 255 0 0 255
25.920425 -5.123819 46.284935 255 0 0 255
25.179292 -4.401108 46.286846 255 0 0 255
24.419525 -4.000416 46.304493 255 0 0 255
24.269990 -3.956283 46.309879 255 0 0 255
23.235682 -3.439509 46.324665 255 0 0 255
22.108069 -2.753405 46.362557 255 0 0 255
21.663551 -2.488186 46.352765 255 0 0 255
20.668307 -1.922799 46.396718 255 0 0 255
19.511340 -1.306668 46.441804 255 0 0 255
18.024445 -0.277884 46.438799 255 0 0 255
17.382867 0.667587 46.481740 255 0 0 255
24.424050 -1.875300 46.383002 255 0 0 255
24.393799 -2.628639 46.374622 255 0 0 255
25.008028 -3.637990 46.351698 255 0 0 255
25.581758 -4.020653 46.330252 255 0 0 255
26.100932 -4.244463 46.335777 255 0 0 255
27.204533 -4.427752 46.338489 255 0 0 255
28.071561 -4.180816 46.344242 255 0 0 255
28.275079 -3.607069 46.347360 255 0 0 255
28.278025 -3.256146 46.392920 255 0 0 255
28.103259 -7.344292 46.230676 255 0 0 255
