47
-30.549011 -31.803082 21.848582 145 145 145 145
-19.367405 -43.383551 21.854681 55 55 55 55
-8.481955 -25.923205 48.980925 47 47 47 47
-15.634259 -21.055704 29.224724 26 26 26 26
-12.496651 -26.024520 30.576630 160 160 160 160
-16.354393 -20.303273 31.164982 4 4 4 4
-21.118310 -30.045255 17.620990 118 118 118 118
-22.292077 -24.123057 22.671060 148 148 148 148
-13.055571 -24.677064 33.173370 146 146 146 146
-19.656548 -44.483185 21.877134 176 176 176 176
-12.573010 -37.375892 66.365444 137 137 137 137
-13.985305 -23.232631 27.656221 114 114 114 114
-16.250471 -21.195457 29.992539 140 140 140 140
-15.298343 -16.042568 -0.144810 184 184 184 184
-16.267175 -28.575712 18.768199 65 65 65 65
-14.427358 -23.695284 32.582122 14 14 14 14
-17.877856 -19.414040 29.821061 217 217 217 217
-18.222596 -20.671661 29.695008 65 65 65 65
-15.466177 -19.930174 35.033042 151 151 151 151
-18.323996 -20.706189 30.151470 131 131 131 131
-15.290618 -38.404482 20.714023 202 202 202 202
-15.026651 -38.116061 61.806861 90 90 90 90
-12.519411 -35.447102 34.620861 53 53 53 53
-14.885463 -22.947693 30.029626 154 154 154 154
-20.801451 -19.318868 29.431589 50 50 50 50
0.167453 7.370846 -1.067279 206 206 206 206
-15.930493 -20.389697 31.528313 217 217 217 217
-17.794486 -20.011150 29.952940 125 125 125 125
-9.460021 -29.083008 50.837877 194 194 194 194
-13.909983 -31.198651 21.491562 181 181 181 181
-22.946756 -27.391179 18.613325 93 93 93 93
-19.842984 -28.614355 18.668708 196 196 196 196
-19.968916 -15.404370 24.087141 230 230 230 230
0.831440 0.348063 1.329959 106 106 106 106
-19.272136 -23.124442 26.278195 179 179 179 179
-21.510739 -27.845892 18.879377 127 127 127 127
-24.198845 -19.346259 29.802086 80 80 80 80
-17.546341 -20.880591 29.907875 115 115 115 115
-15.965095 -20.034822 31.360919 14 14 14 14
-23.857162 -28.438926 17.883758 56 56 56 56
-26.858472 -28.398425 18.067540 134 134 134 134
-16.757968 -19.355275 29.732154 199 199 199 199
-0.260797 21.878743 -8.371199 160 160 160 160
-0.026750 18.377887 -14.068053 138 138 138 138
-17.339593 -36.620969 21.658172 20 20 20 20
-15.016725 -17.325147 10.829556 177 177 177 177
-7.460722 -26.538187 45.108409 139 139 139 139
