92
-3.403524 1.881559 -0.512307 240 240 240 240
-4.082857 3.827736 -0.227665 254 254 254 254
13.770504 15.384521 -3.298496 54 54 54 54
11.530457 15.479683 -7.253868 75 75 75 75
39.087389 -42.867497 11.850074 173 173 173 173
13.479884 0.403452 -2.472143 98 98 98 98
-4.815720 -7.049679 4.362088 102 102 102 102
12.157707 -0.096802 -0.213399 93 93 93 93
36.693117 10.373238 0.203467 140 140 140 140
19.306583 15.500662 -6.894360 68 68 68 68
27.747203 20.790820 5.474843 92 92 92 92
3.143251 11.498179 -6.789705 148 148 148 148
27.250207 18.883486 -5.002536 18 18 18 18
28.170510 22.073743 5.942620 139 139 139 139
3.683303 2.615480 6.126882 242 242 242 242
12.201686 15.751889 -5.056590 80 80 80 80
1.880819 10.948460 -7.215782 106 106 106 106
10.150390 16.040552 1.585506 82 82 82 82
26.774537 19.217732 -3.479778 203 203 203 203
27.561695 18.771835 -5.964954 246 246 246 246
13.889759 15.327294 -4.875589 243 243 243 243
12.697833 15.544915 -5.959837 101 101 101 101
17.708316 18.818282 6.270320 232 232 232 232
37.617582 9.530129 -2.963173 155 155 155 155
1.057984 -4.606607 5.323045 98 98 98 98
27.318826 18.654483 -6.721963 206 206 206 206
20.958539 14.351766 -7.669370 73 73 73 73
12.909795 7.947204 -7.431678 82 82 82 82
36.394660 15.364860 0.320113 103 103 103 103
22.851963 3.670873 -7.366945 202 202 202 202
13.061521 15.244251 -7.107725 82 82 82 82
19.321548 11.729079 -7.484787 113 113 113 113
13.919769 6.737592 5.919629 239 239 239 239
16.968964 -24.308894 -7.657594 160 160 160 160
13.833285 15.316784 -3.272876 77 77 77 77
57.451565 -44.668471 25.909573 163 163 163 163
56.549336 -36.791606 21.812222 80 80 80 80
25.775255 17.247473 -7.648227 167 167 167 167
11.533317 -0.887276 4.508062 200 200 200 200
21.078068 2.645525 0.937121 129 129 129 129
30.148455 6.105188 4.043186 91 91 91 91
23.177336 8.723043 5.757471 99 99 99 99
9.542262 6.976332 -7.523806 69 69 69 69
20.354872 8.008563 -7.787807 156 156 156 156
34.983434 22.269913 2.602056 141 141 141 141
11.067946 16.183013 6.314598 89 89 89 89
6.763585 16.793905 -7.338584 250 250 250 250
26.138227 15.492083 -4.217053 131 131 131 131
14.377360 13.686748 -3.480605 244 244 244 244
0.819408 9.730329 6.315721 140 140 140 140
27.138670 19.514217 -3.521825 182 182 182 182
13.377192 0.146384 6.417331 114 114 114 114
19.663923 4.701973 -7.510823 174 174 174 174
13.321587 0.374232 1.511106 94 94 94 94
11.928314 -0.139923 -3.220717 144 144 144 144
35.454722 15.758392 5.347023 164 164 164 164
-1.615770 -5.752118 3.802956 151 151 151 151
0.672279 10.169973 -7.396315 3 3 3 3
9.116731 15.804330 -7.901245 176 176 176 176
4.478996 -3.622519 3.986341 153 153 153 153
3.584907 -4.920847 4.197650 136 136 136 136
15.951236 15.097756 1.610412 245 245 245 245
22.634302 12.385147 -7.517112 75 75 75 75
10.109144 16.093520 -6.298592 142 142 142 142
34.840767 11.101034 0.929260 134 134 134 134
9.045032 16.096021 -4.905346 100 100 100 100
14.431118 13.701769 -3.138334 251 251 251 251
31.377632 21.182767 5.817773 63 63 63 63
23.147233 14.061575 -4.832531 0 0 0 0
35.731201 15.120544 1.244589 128 128 128 128
34.914532 12.173236 -1.937244 154 154 154 154
34.921954 10.361610 -7.358924 148 148 148 148
8.155775 15.228783 -7.459536 110 110 110 110
-2.961055 8.691178 -6.986917 96 96 96 96
18.771320 15.116273 0.572648 129 129 129 129
53.099516 -45.830529 33.363143 152 152 152 152
50.635918 -47.720091 32.804271 149 149 149 149
2.243006 -2.475762 -0.198427 78 78 78 78
17.275763 2.224221 3.293798 60 60 60 60
13.919572 0.738457 0.902892 90 90 90 90
8.787536 -0.709701 4.211630 91 91 91 91
20.552886 5.216903 -6.905201 107 107 107 107
15.032554 14.822956 1.747332 74 74 74 74
9.316251 13.375925 6.149811 252 252 252 252
42.390905 -37.785115 11.728512 169 169 169 169
48.711589 -31.624946 14.065433 173 173 173 173
1.911903 10.905931 -6.143487 100 100 100 100
14.382084 7.341717 -2.949324 186 186 186 186
46.516421 -39.726166 21.942863 145 145 145 145
43.935926 -37.241235 14.718718 153 153 153 153
43.436153 -37.355885 26.742118 153 153 153 153
28.413649 6.837286 5.254315 140 140 140 140
