1112
-4.779603 -0.890987 -1.050067 124 124 124 124
-5.517428 -0.534070 1.119520 105 105 105 105
-4.757198 -0.862582 -1.398646 249 249 249 249
-4.762656 -0.964782 -1.011931 152 152 152 152
1.903791 -1.481470 -0.019829 159 159 159 159
-0.739077 -0.080026 0.838477 38 38 38 38
-1.004732 -0.817129 0.758598 217 217 217 217
-2.468596 -3.401573 0.446091 182 182 182 182
0.623166 -3.430602 -0.278259 13 13 13 13
-0.965705 -3.693633 -0.279194 10 10 10 10
1.887796 -3.425923 -0.007157 13 13 13 13
-1.565220 -2.746827 -0.259559 114 114 114 114
-4.425266 -3.572606 -0.164867 2 2 2 2
-4.899343 -3.470910 -0.620644 42 42 42 42
-4.163874 -4.688302 -0.372703 142 142 142 142
-4.008964 -4.896370 -0.434443 4 4 4 4
-3.612584 -5.150893 -0.876218 58 58 58 58
-5.493639 -2.651684 -0.130516 10 10 10 10
-4.861106 -1.845453 -0.992682 31 31 31 31
-3.443757 -5.796490 -0.069492 27 27 27 27
-2.692616 -0.386201 0.703330 220 220 220 220
1.881079 -1.183120 0.207343 149 149 149 149
-1.292034 -1.347101 -0.622241 148 148 148 148
-1.692629 -1.848102 -0.139281 133 133 133 133
-0.866658 -5.642751 -0.497961 205 205 205 205
47.647882 -30.693092 3.307920 90 90 90 90
0.824245 -4.076059 0.170325 74 74 74 74
0.051190 -4.691091 -0.425678 184 184 184 184
-4.856332 -3.499255 -0.640436 1 1 1 1
-4.149270 -2.554646 -0.504853 127 127 127 127
-4.017612 -4.857994 -0.508708 232 232 232 232
-3.337923 -4.332397 -0.539891 17 17 17 17
-17.798465 -1.111053 -1.404542 24 24 24 24
-5.166348 -2.441461 -0.060722 131 131 131 131
1.921605 -1.479289 -0.021321 168 168 168 168
2.503828 -1.724104 0.189398 2 2 2 2
2.404038 -1.641275 0.311492 131 131 131 131
-0.107729 -4.355449 0.269156 160 160 160 160
-1.348841 -4.839437 0.104687 95 95 95 95
-1.193583 0.650567 0.399809 175 175 175 175
-2.889981 -0.728040 0.594164 57 57 57 57
-0.279381 0.501942 0.101292 81 81 81 81
-0.573026 0.076075 0.883154 69 69 69 69
0.298466 -3.478241 -0.240321 2 2 2 2
-0.141251 -4.774449 -0.554204 203 203 203 203
1.822718 -0.845843 -0.429293 51 51 51 51
-2.425460 -5.264536 -0.430430 251 251 251 251
2.279050 -11.353209 0.207085 237 237 237 237
-1.877274 -4.424184 0.260077 132 132 132 132
-1.783404 -1.795685 0.161247 55 55 55 55
3.536539 -0.794452 0.128141 147 147 147 147
3.577614 1.862024 -0.164047 132 132 132 132
5.610812 1.054160 0.100454 82 82 82 82
3.092106 -0.270377 0.874873 192 192 192 192
-0.904300 -5.768897 -0.012765 84 84 84 84
-3.967563 -2.713635 0.448450 48 48 48 48
-2.517878 -1.818940 0.619316 131 131 131 131
-4.207425 -2.679996 -0.532615 3 3 3 3
3.289923 -0.517821 0.116042 32 32 32 32
2.317850 -1.894371 -0.247795 189 189 189 189
2.434357 -0.576833 0.656298 8 8 8 8
-0.273744 -1.067303 -0.121636 30 30 30 30
4.116509 2.047770 -0.033844 2 2 2 2
2.519772 -1.779601 -0.064339 157 157 157 157
0.413027 0.720878 0.908011 183 183 183 183
0.950152 1.326735 -0.105150 142 142 142 142
-0.202942 0.481708 -0.292869 150 150 150 150
0.123534 0.797874 -0.000319 61 61 61 61
3.654105 1.875937 0.461620 179 179 179 179
2.917855 -2.625657 0.078544 188 188 188 188
-1.771730 -1.951141 -0.631702 252 252 252 252
1.685200 -3.601734 -0.129719 179 179 179 179
2.988153 -2.552112 0.447999 152 152 152 152
-1.527036 -2.104651 -0.323258 241 241 241 241
-0.739838 -1.968763 0.233252 214 214 214 214
1.320919 -3.972653 0.155602 90 90 90 90
1.405728 -3.764487 -0.172413 150 150 150 150
-0.283383 -4.882764 -0.560539 110 110 110 110
-2.912359 -6.928694 -0.237752 195 195 195 195
-3.414543 -5.866315 -0.234185 145 145 145 145
-2.867273 -6.669375 -0.187686 69 69 69 69
-9.785217 -14.803894 -1.355310 82 82 82 82
-1.792466 -6.294630 -0.613229 16 16 16 16
1.524729 1.151836 0.262213 95 95 95 95
-2.426058 -3.172003 -0.443510 140 140 140 140
-1.447565 -3.083732 -0.195102 62 62 62 62
-3.987686 -2.824120 0.415389 36 36 36 36
0.328730 0.691615 0.944275 173 173 173 173
3.081929 -2.660379 0.146403 1 1 1 1
2.561426 0.188527 -0.350830 47 47 47 47
1.845239 -1.385004 -0.180470 98 98 98 98
2.055329 -2.864174 -0.393749 29 29 29 29
2.401183 -3.064654 -0.106320 203 203 203 203
2.304447 -1.209598 -0.188412 85 85 85 85
2.661801 2.083398 1.193376 50 50 50 50
0.751333 -1.042494 0.504586 148 148 148 148
1.375863 0.640206 -0.232126 244 244 244 244
1.639505 -0.887020 -0.503096 59 59 59 59
-3.853439 -5.226144 -0.089011 219 219 219 219
4.345059 -5.803285 0.271169 224 224 224 224
4.362571 -1.412826 0.637326 136 136 136 136
1.754048 -3.392691 0.323149 59 59 59 59
1.663449 0.663859 0.127199 250 250 250 250
-1.458564 -5.828329 -0.729589 30 30 30 30
-2.505979 -5.143748 -0.524497 238 238 238 238
-2.847772 -4.255722 0.809852 102 102 102 102
-1.573339 -2.113992 -0.165315 248 248 248 248
-4.606450 -2.138421 0.569113 1 1 1 1
-4.356375 -3.506539 -0.173670 3 3 3 3
-8.243188 -1.933003 0.066765 110 110 110 110
-1.736289 -0.905295 0.697471 209 209 209 209
4.010937 2.503287 0.348158 147 147 147 147
-1.173039 0.754590 0.413208 183 183 183 183
1.809780 1.743205 1.156174 140 140 140 140
5.416367 0.427062 0.996754 209 209 209 209
1.715720 -1.070674 0.189297 173 173 173 173
-0.296390 0.524219 0.191232 251 251 251 251
3.678917 3.407026 1.283558 135 135 135 135
1.070988 1.377837 0.089874 16 16 16 16
0.040088 -2.806542 -0.455106 197 197 197 197
0.010123 -2.794176 -0.450938 11 11 11 11
-0.775270 -2.858682 -0.778213 6 6 6 6
0.309948 -3.563520 -0.541765 15 15 15 15
1.234036 -1.496878 0.659492 238 238 238 238
2.830871 -2.020017 -0.131045 71 71 71 71
2.208316 -2.850407 -0.195522 47 47 47 47
2.588715 -1.709587 0.133654 169 169 169 169
2.758237 -3.129279 0.231263 135 135 135 135
2.387563 -1.608594 -0.140441 3 3 3 3
1.720790 -1.372055 0.108834 56 56 56 56
1.840382 -1.681709 -0.277068 127 127 127 127
-0.790938 -6.111413 -0.021552 60 60 60 60
-2.396701 -5.000811 -0.577389 252 252 252 252
2.262346 -1.132015 0.844323 118 118 118 118
-1.840171 -6.243099 -0.598014 184 184 184 184
-2.257350 -5.283851 -0.440620 7 7 7 7
-0.534482 -3.639805 -0.064271 0 0 0 0
-1.001752 -3.161010 -0.503834 248 248 248 248
3.393732 -0.412225 0.462981 151 151 151 151
20.884786 6.236154 15.195973 0 0 0 0
-4.120620 -2.805951 -0.285032 231 231 231 231
7.366199 1.337826 0.458671 75 75 75 75
-3.995365 -4.841006 -0.492122 125 125 125 125
-3.975125 -1.478600 0.519848 238 238 238 238
-4.369639 -3.152824 0.080085 124 124 124 124
-4.091304 -2.605458 -0.343421 16 16 16 16
-0.201776 0.411639 0.938315 153 153 153 153
0.269612 0.206321 0.879604 247 247 247 247
2.526853 -0.572162 0.267730 140 140 140 140
2.231631 3.529099 0.887960 171 171 171 171
1.811277 -1.419171 -0.096296 60 60 60 60
3.861820 1.803757 0.323668 63 63 63 63
1.767157 -1.284066 0.476288 153 153 153 153
5.625503 1.021839 0.031123 34 34 34 34
3.501361 -1.116740 -0.216296 215 215 215 215
2.466561 0.136918 0.946544 235 235 235 235
0.939854 -0.032170 0.892113 163 163 163 163
2.832471 -2.472672 0.537282 90 90 90 90
-0.358536 -6.027610 -0.379276 76 76 76 76
-0.014095 -3.468466 -0.885210 160 160 160 160
0.282836 -4.605677 -0.280680 129 129 129 129
1.942134 -3.134312 -0.092459 202 202 202 202
1.099002 -3.860987 -0.243231 24 24 24 24
1.882705 -3.003277 -0.344310 56 56 56 56
1.626420 -3.735691 0.131510 107 107 107 107
1.370814 -3.788418 0.004439 132 132 132 132
0.577244 -3.535844 -0.252965 128 128 128 128
-2.464796 -6.698899 -0.307941 94 94 94 94
-3.367621 -5.936489 -0.139691 37 37 37 37
4.145337 2.328639 -0.002691 149 149 149 149
3.509867 -1.040296 -0.225385 117 117 117 117
2.533640 -0.701349 0.115210 159 159 159 159
1.776852 -1.349303 0.541870 182 182 182 182
-3.155984 -0.837387 0.127895 214 214 214 214
-3.050182 -1.886829 0.500820 194 194 194 194
-1.604759 -2.473097 -0.429583 18 18 18 18
-4.190493 -2.910780 0.378212 244 244 244 244
-2.768981 -1.563664 -0.226052 216 216 216 216
-1.482077 -2.784619 -0.205370 245 245 245 245
-4.065418 -2.581832 -0.403543 217 217 217 217
0.174053 -1.359921 -0.307379 16 16 16 16
-2.796650 -0.630975 0.801460 73 73 73 73
0.289531 1.002694 0.077306 188 188 188 188
0.319273 0.264175 0.908908 95 95 95 95
1.821357 3.283035 1.239745 63 63 63 63
-2.167651 -0.014745 0.267124 48 48 48 48
-0.429250 0.654349 -0.036617 28 28 28 28
-0.561822 0.159333 0.381490 204 204 204 204
-0.583408 0.194385 0.006251 159 159 159 159
-0.747703 -0.057204 0.807925 37 37 37 37
2.821594 -0.469543 0.548664 122 122 122 122
-0.846811 -0.009878 0.034568 8 8 8 8
-0.752311 -0.045261 0.859868 64 64 64 64
-0.633926 0.113520 0.064743 4 4 4 4
-1.723015 0.184559 0.694166 127 127 127 127
4.508286 -0.963964 0.017162 0 0 0 0
-3.322090 -2.676434 0.434997 134 134 134 134
3.060277 2.679663 0.550560 228 228 228 228
2.900092 -0.515780 0.597024 1 1 1 1
3.945066 2.178336 0.337556 234 234 234 234
3.545681 -1.956637 0.136765 127 127 127 127
3.627880 1.721148 0.139852 191 191 191 191
-0.062158 -1.957014 -0.262125 28 28 28 28
2.821342 -0.592784 0.771908 135 135 135 135
5.983141 0.883865 0.048992 87 87 87 87
-0.079643 -1.831939 -0.306223 110 110 110 110
-1.063567 -3.212508 -0.467913 68 68 68 68
2.411172 1.961674 0.383479 4 4 4 4
0.126213 -4.740803 -0.621830 131 131 131 131
1.308091 2.112922 0.331558 148 148 148 148
0.183558 -4.802331 -0.335739 129 129 129 129
0.414128 -2.566854 0.500559 132 132 132 132
-0.434205 -5.254718 0.034654 139 139 139 139
6.003029 -0.068133 0.837865 167 167 167 167
1.980033 1.094581 -0.231466 220 220 220 220
-1.154600 -5.926792 -0.078722 58 58 58 58
3.185834 -0.218249 0.407123 168 168 168 168
-0.562512 -6.339838 -0.131353 218 218 218 218
-2.411090 -6.639019 -0.625334 206 206 206 206
-11.553198 6.224340 0.974533 164 164 164 164
-2.416040 -6.444112 -0.684369 30 30 30 30
-1.659755 -4.155920 0.253381 211 211 211 211
-3.793982 -5.328284 -0.428244 130 130 130 130
1.761484 -1.305149 0.042099 167 167 167 167
-4.025389 -4.772741 -0.305605 149 149 149 149
4.454022 -1.124040 0.758691 104 104 104 104
-2.803211 -1.571227 -0.163865 22 22 22 22
-2.991979 -1.792011 -0.271249 167 167 167 167
-0.463067 -1.513900 0.646444 79 79 79 79
1.133138 1.144063 0.032538 73 73 73 73
0.359963 0.325041 0.885221 69 69 69 69
-1.317445 -0.839603 0.274271 215 215 215 215
1.260648 1.603755 -0.132090 35 35 35 35
-2.693497 -0.478341 0.703396 65 65 65 65
-1.802056 -0.774398 -0.174148 48 48 48 48
1.887673 1.439369 0.122300 58 58 58 58
1.953532 -1.057085 0.733191 34 34 34 34
3.519818 -0.783077 0.683988 56 56 56 56
-2.309449 -5.403576 -0.395266 249 249 249 249
2.369036 -1.546274 -0.083288 183 183 183 183
3.434327 2.247920 0.326330 232 232 232 232
2.829114 1.617111 0.140572 252 252 252 252
0.136551 -4.915288 -0.403753 77 77 77 77
1.332450 -3.892539 0.055132 204 204 204 204
3.632774 2.219620 0.310324 243 243 243 243
-2.367363 -6.642203 -0.161675 12 12 12 12
-2.071875 -6.303260 -0.781262 93 93 93 93
-2.295505 -6.619840 -0.673187 8 8 8 8
-2.696917 -5.008140 -0.496360 149 149 149 149
1.595328 -3.686506 -0.106302 134 134 134 134
-4.144785 -4.648678 -0.435088 153 153 153 153
-4.217219 -1.710714 0.478339 210 210 210 210
-0.989500 1.124863 0.888842 53 53 53 53
-0.222211 -0.811466 -0.202877 40 40 40 40
2.001414 3.403024 0.916561 125 125 125 125
1.810795 -1.018558 0.170529 8 8 8 8
3.440825 2.640876 0.543916 250 250 250 250
1.811845 -1.321068 -0.053583 130 130 130 130
-0.289977 -4.912963 -0.625353 128 128 128 128
-0.254871 -4.846487 -0.411986 250 250 250 250
-0.422401 -5.252979 0.050278 6 6 6 6
-0.566959 -5.210264 -0.271154 115 115 115 115
-1.442147 -6.109253 -0.698960 129 129 129 129
-1.753286 -4.196538 0.289741 98 98 98 98
-1.101403 -3.637521 -0.587445 8 8 8 8
-1.214411 -3.807177 -0.392099 101 101 101 101
4.752393 -0.796132 -0.165173 126 126 126 126
-0.959522 -3.632825 -0.425244 72 72 72 72
-2.574058 -3.396163 -0.863478 222 222 222 222
-2.255441 -4.999947 -0.664960 142 142 142 142
-1.283899 0.518153 -1.751195 29 29 29 29
-0.776702 0.071852 -0.039599 1 1 1 1
3.269167 -0.507117 0.078958 199 199 199 199
10.161510 -7.917792 -0.461818 132 132 132 132
1.544940 0.004355 0.751417 176 176 176 176
1.965550 -2.630520 0.508933 220 220 220 220
0.163327 -3.100688 -0.501644 199 199 199 199
0.016211 -2.979492 -0.469674 250 250 250 250
3.599215 2.410109 0.500968 2 2 2 2
-0.038974 -4.653514 -0.535603 77 77 77 77
3.279961 -0.514558 0.074046 176 176 176 176
-1.442481 1.982569 -1.533358 125 125 125 125
-0.597497 -5.473666 -0.068853 237 237 237 237
-1.335127 -5.898552 -0.019418 154 154 154 154
2.726581 1.658147 -0.011487 157 157 157 157
-1.523128 -2.807230 -0.149832 84 84 84 84
1.563562 -2.664602 -0.312041 253 253 253 253
3.533829 1.760167 0.056886 156 156 156 156
-1.498632 -6.004402 -0.026739 119 119 119 119
-3.231459 -6.074164 -0.101364 7 7 7 7
3.280124 2.722763 0.438371 239 239 239 239
4.031607 -1.438590 0.643492 241 241 241 241
-1.929508 -1.943665 -0.693087 176 176 176 176
-1.569650 -1.757383 -0.323265 32 32 32 32
-1.973717 -0.983553 -0.410951 126 126 126 126
-4.828583 -2.212660 -0.028375 181 181 181 181
1.098766 1.421899 0.201889 3 3 3 3
-0.063034 0.679644 0.181824 139 139 139 139
-0.592029 -5.424257 -0.459733 185 185 185 185
1.378825 -3.863407 -0.278085 193 193 193 193
1.675677 -3.411496 -0.217920 201 201 201 201
-0.004562 -4.663925 -0.496977 203 203 203 203
-1.380782 -2.274784 -0.406734 186 186 186 186
2.663088 -2.271372 0.472298 131 131 131 131
-0.079451 -1.925786 -0.211185 121 121 121 121
-1.176465 -3.326798 -0.524665 2 2 2 2
-2.485400 -6.970840 -0.425877 170 170 170 170
-2.454447 -5.216728 -0.473740 147 147 147 147
3.793662 -1.209282 -0.109607 101 101 101 101
4.201845 -1.375188 0.656088 112 112 112 112
-0.410009 -5.260457 -0.301320 193 193 193 193
3.555291 -0.815128 0.402618 140 140 140 140
-2.793433 -4.955594 0.107773 193 193 193 193
-2.638324 -5.300842 -0.466717 3 3 3 3
-0.537365 -5.461793 -0.438353 133 133 133 133
-2.397113 -5.295119 -0.426779 241 241 241 241
-4.893233 -3.450213 -0.446495 12 12 12 12
-3.997174 -4.841221 -0.506777 249 249 249 249
-3.554828 -5.440598 -0.514832 175 175 175 175
-4.037013 -4.827129 -0.430350 3 3 3 3
-3.500691 -5.108286 -0.776425 247 247 247 247
-1.725594 -1.738363 -0.328323 146 146 146 146
-3.034805 -1.782854 -0.121709 163 163 163 163
-1.916795 -1.925911 -0.688070 3 3 3 3
-0.159361 0.677398 0.018752 240 240 240 240
-2.838211 -1.506944 -0.192613 120 120 120 120
-3.872794 -1.450335 0.503724 143 143 143 143
-3.056096 -1.840810 0.602204 14 14 14 14
-4.084223 -1.322478 0.547448 83 83 83 83
-0.659163 1.213385 0.927005 163 163 163 163
-1.239675 0.100121 -1.802156 12 12 12 12
-1.778510 -0.951778 0.682225 213 213 213 213
3.036951 -2.102431 0.364989 30 30 30 30
1.411828 1.135812 0.322402 113 113 113 113
3.682832 3.591700 0.657350 103 103 103 103
1.692643 0.553377 0.142077 118 118 118 118
-1.818740 -0.949823 0.185835 103 103 103 103
-4.547346 -2.061940 -0.272404 46 46 46 46
0.116263 -2.514735 0.541313 90 90 90 90
4.815205 -0.959018 0.218813 186 186 186 186
-0.988865 -3.826061 -0.292280 12 12 12 12
-0.123932 -2.916024 -0.490036 230 230 230 230
3.802531 -1.812258 0.349150 230 230 230 230
-2.327102 -6.675236 -0.167658 213 213 213 213
-1.580334 -6.077514 -0.135728 67 67 67 67
-2.121200 -6.711056 -0.620736 224 224 224 224
-2.029223 -6.076900 -0.887401 240 240 240 240
-2.172159 -6.715345 -0.376762 1 1 1 1
-1.677147 -6.018583 -0.870563 20 20 20 20
-2.138907 -6.799989 -0.399822 226 226 226 226
-0.604099 -5.427156 -0.467120 203 203 203 203
-2.545928 -6.822045 -0.191600 155 155 155 155
-2.006502 -6.366545 -0.835397 68 68 68 68
-2.111596 -6.733645 -0.180590 123 123 123 123
-3.742317 -5.264839 -0.540255 203 203 203 203
-3.691138 -5.544631 -0.502552 98 98 98 98
-4.100434 -4.773674 -0.298971 115 115 115 115
-2.209730 0.127747 0.468048 108 108 108 108
4.030693 -1.520560 0.550451 42 42 42 42
-3.238614 -2.644948 0.490869 99 99 99 99
-3.881515 -1.135203 0.542440 129 129 129 129
2.543062 2.817167 0.684120 216 216 216 216
-0.529728 1.089550 -0.082957 183 183 183 183
-1.293150 -0.749221 0.774056 254 254 254 254
-2.068442 -6.636238 -0.563761 249 249 249 249
-2.491314 -6.738673 -0.446186 60 60 60 60
-0.962736 -3.985945 -0.388068 95 95 95 95
-0.037988 -2.767314 -0.703461 63 63 63 63
1.997003 -2.931190 -0.364520 216 216 216 216
1.602316 -3.420089 -0.169223 9 9 9 9
-0.910096 -4.079298 -0.412577 136 136 136 136
-2.398060 -6.712115 -0.138915 191 191 191 191
-1.882457 -5.897887 -0.855050 223 223 223 223
-2.208330 -6.575515 -0.684476 172 172 172 172
-0.600641 -5.169318 -0.528961 112 112 112 112
-3.963892 -3.716937 -0.545227 210 210 210 210
-3.683695 -5.587858 -0.480825 221 221 221 221
-2.768603 -5.003733 -0.517777 7 7 7 7
-3.275819 -0.741473 0.172754 175 175 175 175
-2.406314 -3.053739 -0.699191 213 213 213 213
-1.763976 -2.758713 -0.778551 250 250 250 250
-1.922304 -1.522634 -0.343627 31 31 31 31
-1.632394 -3.157715 -0.846041 223 223 223 223
-1.756635 -2.921348 -0.816936 2 2 2 2
-2.975876 -1.741996 -0.209908 84 84 84 84
-2.869391 -3.030077 0.127568 184 184 184 184
-5.456034 -2.512029 -0.108229 158 158 158 158
-0.737943 0.109252 0.166436 190 190 190 190
3.567957 1.999495 0.201526 6 6 6 6
-2.945817 3.119304 -1.460739 124 124 124 124
2.267749 -1.458400 0.197071 168 168 168 168
0.595009 -4.411586 0.189022 104 104 104 104
4.036515 2.232429 0.009311 248 248 248 248
-0.237469 -4.876840 -0.522099 5 5 5 5
-2.591850 -6.795391 -0.167278 197 197 197 197
-1.635564 -6.408256 -0.157117 255 255 255 255
5.247670 -0.450847 0.861907 155 155 155 155
-4.047923 -4.952415 -0.453141 7 7 7 7
-3.453076 -5.789864 -0.097253 134 134 134 134
-1.691004 -2.979435 -0.501800 226 226 226 226
-2.389377 -3.736271 -0.596163 8 8 8 8
-2.817993 -0.409513 0.643920 91 91 91 91
-1.610004 -3.173344 -0.837341 209 209 209 209
0.105322 1.821113 0.552161 17 17 17 17
-5.509417 -2.578999 -0.095118 179 179 179 179
-4.023850 -3.356809 -0.011190 211 211 211 211
-0.942457 0.937483 0.882219 202 202 202 202
-0.735224 -0.011841 0.865734 2 2 2 2
-0.081586 -2.116459 -0.350038 3 3 3 3
4.409892 0.488001 0.088562 1 1 1 1
-0.791032 0.267327 0.308670 103 103 103 103
5.565656 -1.575593 0.084414 105 105 105 105
-4.097477 -3.622801 -0.325632 248 248 248 248
-3.630358 -5.527497 -0.426759 17 17 17 17
-4.069309 -2.894698 0.268539 112 112 112 112
-4.119090 -2.667772 0.264275 232 232 232 232
-2.552381 -6.297256 -0.820035 2 2 2 2
-2.387342 -3.255356 -0.450349 156 156 156 156
0.194662 0.789045 0.194272 39 39 39 39
-0.477974 0.685970 -0.059788 197 197 197 197
4.110313 -1.299356 0.732281 51 51 51 51
0.562339 0.930720 0.480322 171 171 171 171
-2.753351 -1.584525 -0.140308 234 234 234 234
-0.180050 -0.130765 0.884158 100 100 100 100
-0.235526 -1.184426 -0.222089 249 249 249 249
-1.003930 -0.292494 -0.311110 30 30 30 30
1.925514 -1.005989 0.684974 74 74 74 74
2.435760 -1.607331 -0.069818 183 183 183 183
3.117669 2.933933 -0.108095 200 200 200 200
0.206301 -3.091994 0.155666 242 242 242 242
3.458946 2.384256 0.517469 247 247 247 247
0.256270 -2.055820 -0.114097 244 244 244 244
2.316198 -1.893305 -0.446222 78 78 78 78
3.611238 1.503211 1.056279 138 138 138 138
-0.307489 -4.947467 -0.543156 89 89 89 89
-0.035427 -4.654428 -0.442039 164 164 164 164
0.005065 -4.613693 -0.804342 250 250 250 250
0.080323 -4.902361 -0.267086 130 130 130 130
0.400099 -4.679082 0.121949 219 219 219 219
0.606767 -4.468600 0.181281 26 26 26 26
0.757450 -4.149983 0.266227 133 133 133 133
-1.560033 -5.789535 -0.764061 196 196 196 196
0.105257 -4.899010 0.048888 117 117 117 117
-1.400445 -5.798273 -0.669535 20 20 20 20
-3.296071 -5.946825 -0.120249 158 158 158 158
-5.697807 5.040146 0.092795 0 0 0 0
1.768299 -1.074985 0.236404 174 174 174 174
2.527124 -0.489064 0.289145 186 186 186 186
1.957815 -3.146183 0.009520 245 245 245 245
2.753709 -1.195573 -0.105854 16 16 16 16
-0.130720 -6.327065 -0.460473 204 204 204 204
-0.980099 -3.822650 -0.302373 6 6 6 6
-5.389823 -2.143579 0.543461 86 86 86 86
-5.489407 -1.068475 -0.126620 131 131 131 131
2.031707 1.339626 -0.161606 10 10 10 10
1.615279 1.031124 0.108233 11 11 11 11
-3.074423 -5.304401 0.098612 228 228 228 228
-1.519305 -6.131077 -0.075717 34 34 34 34
-2.592239 -5.457190 -0.565283 21 21 21 21
-4.116689 -4.669191 -0.643167 242 242 242 242
-3.079127 -3.723090 -0.747458 77 77 77 77
-2.599409 -6.772435 -0.181377 12 12 12 12
-2.506457 -6.726388 -0.709856 191 191 191 191
-4.138002 -4.741580 -0.296637 166 166 166 166
-2.685787 -6.379302 -1.250235 222 222 222 222
1.810051 -1.267346 0.538559 112 112 112 112
1.402884 -1.765590 0.700939 167 167 167 167
-3.067270 -3.795565 -0.596854 211 211 211 211
-2.214107 -6.670578 -0.408464 22 22 22 22
-2.662009 -5.312285 -0.467912 7 7 7 7
-0.037534 -5.060946 -0.288635 191 191 191 191
-2.740349 -4.247036 -0.642978 14 14 14 14
-2.716206 -3.321390 -0.228258 5 5 5 5
-2.909114 -3.320005 -0.454516 168 168 168 168
-2.798911 -5.430746 -0.592444 2 2 2 2
-2.476493 -4.508019 -0.536733 135 135 135 135
-2.879404 -3.355052 -0.511107 52 52 52 52
-2.602526 -3.915394 -0.388937 21 21 21 21
-2.865868 -3.443001 -0.538739 251 251 251 251
-2.730475 -4.848482 -0.576104 131 131 131 131
2.628887 3.911882 1.390216 218 218 218 218
-4.667490 -3.755514 -0.605377 6 6 6 6
-4.825683 -3.926662 0.263620 83 83 83 83
-2.108056 -6.726404 -0.352271 251 251 251 251
-4.878741 -2.270240 -0.051840 111 111 111 111
-1.234988 0.535213 0.506826 107 107 107 107
-2.364989 -6.504668 -0.516381 51 51 51 51
-1.982899 -1.872092 -0.312441 154 154 154 154
0.496998 0.417633 2.368738 214 214 214 214
-1.851953 -2.091910 -0.362045 4 4 4 4
-3.182809 -2.554331 0.444545 91 91 91 91
-1.850868 -1.891142 -0.469528 115 115 115 115
-2.125046 -2.064304 -0.270544 57 57 57 57
-2.015797 -2.035746 -0.131152 123 123 123 123
-1.441697 -2.048480 -0.196729 121 121 121 121
-1.439341 -5.800979 -0.674781 9 9 9 9
-2.939710 -3.189274 -0.376177 179 179 179 179
-1.146821 -5.850852 -0.382002 198 198 198 198
-0.590628 -5.485080 -0.304480 20 20 20 20
2.248673 -1.409385 0.192458 46 46 46 46
1.847332 -1.007048 0.216463 11 11 11 11
-2.807619 -5.473510 -0.615741 244 244 244 244
-1.287164 -3.717884 -0.527824 5 5 5 5
-1.515225 -6.151340 -0.136271 155 155 155 155
-2.829418 -5.235415 -1.103921 247 247 247 247
-2.673942 -2.932783 -0.425745 36 36 36 36
-0.284399 -2.128724 -0.299576 243 243 243 243
-3.449990 -5.747650 -0.321828 120 120 120 120
-2.432555 -6.654660 -0.195144 30 30 30 30
-4.203632 -1.520069 0.035254 183 183 183 183
2.086699 -3.270439 0.040467 84 84 84 84
-1.852787 -2.170972 -0.690953 17 17 17 17
-1.745340 -4.012521 0.295557 234 234 234 234
-1.843853 -2.040150 -0.409286 3 3 3 3
-1.745615 -1.560010 -0.663763 124 124 124 124
-0.435038 0.230067 -0.381018 95 95 95 95
-1.040449 -4.282820 -0.588778 180 180 180 180
-1.111013 -3.748506 -0.327734 129 129 129 129
3.404392 -0.671185 -0.322323 133 133 133 133
3.199672 2.325117 1.280032 124 124 124 124
-0.027879 1.698549 1.239523 122 122 122 122
2.681892 -1.721865 -0.105961 249 249 249 249
-0.850841 -5.736282 -0.505763 201 201 201 201
-2.276615 -6.431386 -0.536283 8 8 8 8
-2.908423 -5.113780 -0.808434 249 249 249 249
2.438134 -1.666546 -0.115372 14 14 14 14
-2.571419 -5.571326 -0.565883 133 133 133 133
-2.301248 -5.934088 -1.149483 237 237 237 237
17.553874 -8.421245 2.630192 134 134 134 134
2.270129 -1.478080 -0.089588 196 196 196 196
-4.860749 -2.387093 0.358154 207 207 207 207
-1.975255 -0.945513 0.717672 189 189 189 189
-2.710620 -3.190079 -0.176192 150 150 150 150
1.232884 1.004570 0.104219 251 251 251 251
-2.635664 -3.419876 -0.838022 172 172 172 172
-0.757301 -5.592919 -0.112412 198 198 198 198
-5.274219 3.619945 -0.726393 159 159 159 159
-2.532989 -5.322193 -0.355943 128 128 128 128
-2.751692 -5.112728 -0.755340 10 10 10 10
-1.617912 -5.978849 -0.112018 120 120 120 120
1.929050 3.164517 0.521927 249 249 249 249
-4.029403 -4.766106 -0.793223 161 161 161 161
-2.926513 -3.884369 -0.427536 241 241 241 241
-2.208650 -6.561651 -0.374439 62 62 62 62
-2.804551 -5.196411 -0.793296 198 198 198 198
-2.229573 -1.321944 0.663227 132 132 132 132
-2.856749 -4.901005 -1.003801 141 141 141 141
1.421029 -3.804459 -0.083630 214 214 214 214
4.090954 -1.536230 0.584952 129 129 129 129
-0.819130 -5.591823 -0.426492 117 117 117 117
1.223071 -1.201443 -0.566240 88 88 88 88
0.750130 -0.967397 0.719461 157 157 157 157
3.114303 -2.079391 0.567021 142 142 142 142
-5.456249 -2.844853 0.475848 84 84 84 84
-4.039846 -2.744664 -0.345490 2 2 2 2
-0.157889 -0.001357 -0.372893 141 141 141 141
-4.057363 -2.772088 -0.262072 104 104 104 104
-4.157500 -2.737205 -0.320496 138 138 138 138
-4.079788 -2.787838 -0.218234 126 126 126 126
-2.670512 -6.342580 -1.068182 208 208 208 208
-3.029921 -4.768936 -0.689648 250 250 250 250
-4.381751 -2.947324 0.452174 80 80 80 80
-4.212863 -2.796069 0.481885 8 8 8 8
-4.456460 -3.610014 0.370676 127 127 127 127
3.213481 -2.318782 -0.052803 178 178 178 178
-2.719903 -3.365530 0.378867 88 88 88 88
-4.077012 -4.778992 -0.193662 23 23 23 23
2.252316 -2.991843 -0.067265 219 219 219 219
-3.697119 -5.474387 -0.108209 239 239 239 239
-3.839414 -5.211305 -0.514322 218 218 218 218
-3.801162 -4.259167 -0.161135 183 183 183 183
-3.315037 -1.906807 -0.306712 228 228 228 228
-3.253718 -0.855097 0.151661 63 63 63 63
-3.449251 -1.253219 0.128565 204 204 204 204
-1.877080 -0.796685 -0.514680 226 226 226 226
7.771268 4.756821 2.986928 208 208 208 208
-0.246607 -4.905578 -0.473480 191 191 191 191
-2.940699 -3.863189 -0.441922 186 186 186 186
0.442952 -4.649378 -0.204071 7 7 7 7
2.782337 -1.584804 -0.278207 148 148 148 148
-2.962292 -3.850268 -0.493284 47 47 47 47
-3.070808 -3.886538 -0.923771 28 28 28 28
-3.119474 -4.560714 -0.991139 242 242 242 242
3.369927 -0.693739 0.808026 103 103 103 103
-1.965908 -3.821167 -0.582482 247 247 247 247
-2.813206 -5.166809 -0.751118 20 20 20 20
1.902023 -3.020645 -0.207782 189 189 189 189
-2.764159 -4.686058 -0.642442 249 249 249 249
-1.934863 -4.307804 0.222742 233 233 233 233
-2.874996 -4.260947 -0.626614 213 213 213 213
-1.209223 -4.181782 -0.523054 132 132 132 132
-2.996363 -3.924502 -0.603645 88 88 88 88
-1.650678 -1.408643 -0.614090 107 107 107 107
-2.042065 -0.745919 1.180833 243 243 243 243
-2.720348 -3.175347 -0.231214 1 1 1 1
-1.734878 -0.820771 -0.520134 83 83 83 83
0.571446 1.250184 -0.220862 194 194 194 194
-0.430018 0.319315 0.241481 75 75 75 75
-2.941681 -3.180120 -0.517163 9 9 9 9
-2.405497 -6.686317 -0.156372 16 16 16 16
-2.507185 -6.004394 -0.021620 103 103 103 103
1.913028 -1.512769 -0.051530 4 4 4 4
-2.066739 -6.624077 -0.672738 231 231 231 231
-2.617100 -6.585744 -0.650151 124 124 124 124
-2.752902 -5.093990 -0.587001 128 128 128 128
-2.258960 -6.050548 -0.998966 130 130 130 130
-2.580042 -6.324633 -1.021589 190 190 190 190
0.613014 -4.440665 0.107537 218 218 218 218
-2.023658 -6.683264 -0.250246 135 135 135 135
2.882901 -2.583237 0.270590 219 219 219 219
-2.390670 -6.768186 -0.169411 185 185 185 185
-2.390209 -6.100054 -0.049847 99 99 99 99
-2.791582 -5.146987 -0.711747 87 87 87 87
-2.495320 -6.687477 -0.723845 71 71 71 71
-2.275399 -6.564692 -0.254596 142 142 142 142
3.796601 -1.845081 0.590511 208 208 208 208
-2.379979 -6.490150 -0.762701 129 129 129 129
-4.693865 -4.121784 0.018000 140 140 140 140
-3.867029 -1.751433 0.022137 205 205 205 205
-4.169516 -2.723383 -0.335934 253 253 253 253
-3.275471 -0.826915 0.179152 203 203 203 203
-4.012820 -2.725199 -0.441757 126 126 126 126
2.007197 -1.503052 -0.081292 169 169 169 169
-3.031779 -4.261408 -0.652426 247 247 247 247
-1.433760 -2.982856 -0.433057 14 14 14 14
-3.116981 -3.617478 -0.559210 123 123 123 123
-3.072768 -3.700852 -0.923359 249 249 249 249
2.231907 0.294363 1.035941 111 111 111 111
-2.920014 -3.701722 -0.578878 173 173 173 173
3.654776 -1.152069 -0.373143 8 8 8 8
-2.477859 -4.581399 -0.529293 210 210 210 210
-4.668712 -3.831885 0.334514 146 146 146 146
5.986331 0.079143 0.364550 9 9 9 9
-2.161242 -0.133449 0.739888 85 85 85 85
-1.756372 -1.556233 -0.369279 35 35 35 35
-1.845986 -0.867486 0.723232 165 165 165 165
3.171860 3.593811 0.901140 33 33 33 33
1.921741 -3.340555 0.356808 152 152 152 152
-2.695102 -5.761366 0.030513 92 92 92 92
-1.637962 -5.662166 -0.033386 143 143 143 143
-2.549605 -5.334968 -0.400416 10 10 10 10
-0.366834 -5.237703 -0.451546 29 29 29 29
-2.271624 -5.842819 -0.010432 100 100 100 100
-0.938818 -5.750924 -0.446937 127 127 127 127
-2.385257 -6.686350 -0.117927 116 116 116 116
-2.340569 -6.866576 -0.247532 251 251 251 251
-2.559019 -6.475064 -1.123866 199 199 199 199
-2.601743 -6.863602 -0.719290 14 14 14 14
-2.907401 -4.999371 -0.838644 142 142 142 142
-2.407164 -6.619291 -0.316911 224 224 224 224
-2.093011 -6.713295 -0.249511 24 24 24 24
-2.769734 -5.470562 -1.168338 254 254 254 254
-4.102105 -4.788770 -0.285894 9 9 9 9
-4.115280 -4.766797 -0.309297 21 21 21 21
-3.895751 -3.463567 -0.422975 213 213 213 213
-4.143522 -2.759359 -0.312721 119 119 119 119
-0.787539 -4.412569 -0.469559 2 2 2 2
0.442799 -3.138145 -0.492335 3 3 3 3
-1.651372 -3.188659 -0.511607 6 6 6 6
-2.448560 -4.866900 -0.536163 61 61 61 61
-2.979152 -4.261190 -0.666375 249 249 249 249
4.030789 -1.551699 0.137561 161 161 161 161
-2.469801 -4.565630 -0.540300 253 253 253 253
-3.057870 -3.861672 -0.951261 64 64 64 64
0.263463 -2.889633 -0.252014 40 40 40 40
-2.474799 -4.629135 -0.523269 124 124 124 124
-1.267760 -4.535906 -0.681331 177 177 177 177
0.529467 -4.552321 -0.020039 148 148 148 148
-1.821737 -1.158291 0.671830 117 117 117 117
1.328368 -1.530654 0.677194 245 245 245 245
-2.737349 -3.166887 -0.307096 4 4 4 4
1.408793 1.425838 0.326013 138 138 138 138
-1.887578 -0.965054 -0.249162 5 5 5 5
-2.715994 -3.278845 -0.298037 45 45 45 45
-1.775111 -5.229758 -0.293756 228 228 228 228
-2.070978 -6.144775 -0.178848 240 240 240 240
-2.685253 -5.138474 -0.563673 88 88 88 88
-1.715372 -4.942493 -0.293812 129 129 129 129
-3.208464 -2.132943 -0.041085 142 142 142 142
-3.986705 -4.997047 -0.500545 159 159 159 159
-4.117104 -4.765038 -0.300895 172 172 172 172
-4.038783 -4.844076 -0.517133 206 206 206 206
-5.666649 -2.962956 0.389325 107 107 107 107
-3.942067 -5.251449 -0.401819 127 127 127 127
-4.041982 -4.819019 -0.520056 106 106 106 106
-4.756679 -2.507938 0.518352 149 149 149 149
-4.075536 -3.530584 -0.405305 89 89 89 89
-4.258076 -4.545266 -0.480395 149 149 149 149
-2.280400 -1.953536 0.592244 101 101 101 101
4.709836 -0.811286 0.242568 190 190 190 190
-2.953550 -3.863847 -0.444682 203 203 203 203
2.510782 -3.020323 0.575782 246 246 246 246
-11.476061 -11.702064 -1.040477 69 69 69 69
-2.973302 -3.847602 -0.422165 13 13 13 13
-2.945413 -3.864915 -0.426856 10 10 10 10
-2.418842 -4.570905 -0.567106 251 251 251 251
-1.727300 -4.398452 -0.057768 174 174 174 174
-2.411591 -4.588149 -0.490509 65 65 65 65
-1.620560 -4.416570 -0.023684 186 186 186 186
16.253389 5.451774 3.572035 170 170 170 170
-0.586728 -5.965032 -0.162610 137 137 137 137
-2.662756 -4.933249 -0.522614 230 230 230 230
-2.853214 -4.086099 -0.629589 145 145 145 145
-1.148137 -4.187705 -0.558876 126 126 126 126
-4.312183 -2.657733 0.400732 117 117 117 117
17.318972 13.835527 6.600970 97 97 97 97
-1.612307 -4.185783 0.256710 83 83 83 83
19.584707 15.935274 7.738217 187 187 187 187
-2.417789 -6.882433 -0.738261 84 84 84 84
-2.099968 -6.160841 0.026866 60 60 60 60
-2.304452 -5.840349 0.034749 92 92 92 92
-2.366878 -6.104317 -1.069975 7 7 7 7
7.413824 1.247511 0.410409 86 86 86 86
-2.988193 -5.005646 0.154273 149 149 149 149
-2.597872 -3.834725 -0.421166 55 55 55 55
-10.405847 -17.303298 -0.321504 215 215 215 215
-4.196999 -4.638117 -0.408139 14 14 14 14
-8.138651 -15.727605 -1.733686 171 171 171 171
-4.506921 -3.545254 0.350450 185 185 185 185
-5.176249 -2.429945 -0.068022 192 192 192 192
-4.013870 -2.945861 0.387940 153 153 153 153
-1.205126 -2.825097 -0.407324 46 46 46 46
-2.876108 -3.910055 -0.428640 6 6 6 6
-2.938730 -3.873560 -0.426742 211 211 211 211
-1.001035 -5.092082 -0.780647 18 18 18 18
-1.042056 -5.098182 -0.756433 216 216 216 216
-1.821274 -6.484410 -0.486935 249 249 249 249
-1.597768 -6.331815 -0.334853 126 126 126 126
0.147661 -4.815584 -0.373145 188 188 188 188
-0.036769 -4.693847 -0.436409 171 171 171 171
-0.729306 -5.798571 -0.128920 10 10 10 10
-3.496517 -5.913916 -0.128926 237 237 237 237
-4.181922 -4.663742 -0.381296 1 1 1 1
-16.719689 -14.150349 0.066502 203 203 203 203
-3.425645 -1.139379 0.629345 141 141 141 141
-2.977149 -3.829377 -0.494687 134 134 134 134
-0.257814 -5.105966 0.085834 102 102 102 102
3.926169 3.180601 1.408436 89 89 89 89
-0.638944 -5.206798 -0.537846 103 103 103 103
0.077827 -4.889056 -0.067310 4 4 4 4
1.788576 -3.354802 0.399499 159 159 159 159
-0.496776 -0.015224 0.664725 125 125 125 125
-1.959704 -6.475887 -0.505258 143 143 143 143
-0.310151 -1.405955 -0.236061 18 18 18 18
-2.454894 -6.629718 -0.932115 125 125 125 125
-1.631203 -5.842469 -0.841453 206 206 206 206
-8.649038 -14.925676 0.136392 193 193 193 193
-9.461183 -13.634268 -1.132787 216 216 216 216
-3.463272 -5.762377 -0.573457 178 178 178 178
-3.663896 -4.316933 -0.164548 163 163 163 163
-19.547568 21.008698 -5.847763 68 68 68 68
-4.844732 -3.954015 0.279892 85 85 85 85
2.767420 1.573467 -0.043433 215 215 215 215
-4.925197 -3.862895 0.325418 154 154 154 154
-14.984497 22.492290 -4.610453 70 70 70 70
-17.572767 23.401481 -6.878379 128 128 128 128
-2.938832 -3.851808 -0.430629 12 12 12 12
2.902882 -2.782547 0.411512 159 159 159 159
1.789683 -3.453503 0.253971 230 230 230 230
-4.822105 -3.824200 -0.887353 154 154 154 154
0.027033 -4.636346 -0.823163 157 157 157 157
-0.942961 -5.031167 0.126962 91 91 91 91
0.150507 -1.627704 -0.612021 51 51 51 51
-1.686083 -2.970169 -0.505403 232 232 232 232
-2.719033 -4.836632 -0.720133 3 3 3 3
-2.460769 -4.827251 -0.538972 245 245 245 245
-0.005153 -4.951647 -0.248565 137 137 137 137
-1.174430 -0.348806 0.110179 80 80 80 80
1.233771 1.070848 0.111322 248 248 248 248
-1.591989 -3.093346 -0.454561 219 219 219 219
-1.518908 -3.114958 -0.258304 161 161 161 161
-3.230191 -5.932266 -0.610213 105 105 105 105
-2.082274 -6.700877 -0.367754 114 114 114 114
-2.369213 -6.504151 -0.543163 250 250 250 250
-2.464669 -6.484823 -0.719080 5 5 5 5
-2.492441 -6.235475 -1.110777 1 1 1 1
-2.069077 -6.637809 -0.626356 249 249 249 249
-2.507331 -6.252036 -0.912258 26 26 26 26
-2.307135 -6.504013 -0.580974 134 134 134 134
1.586452 3.056247 0.767536 165 165 165 165
-1.181085 -5.887662 -0.037803 22 22 22 22
-2.265098 -6.624767 -0.190105 136 136 136 136
-1.820383 -5.962642 -0.721420 3 3 3 3
-2.333176 -6.563587 -0.143553 63 63 63 63
-1.883151 -0.867032 0.061957 111 111 111 111
-1.607654 -1.300902 0.555693 158 158 158 158
-1.617411 -5.833855 -0.830419 11 11 11 11
-1.592845 -5.858639 -0.687196 22 22 22 22
-3.220588 -6.049138 -0.109262 32 32 32 32
-0.505211 -1.487982 0.911830 0 0 0 0
-3.535526 -5.600864 -0.394627 134 134 134 134
-24.919084 50.840416 -21.165686 81 81 81 81
-4.795153 -3.832200 -0.844848 1 1 1 1
0.844381 2.010203 0.485519 133 133 133 133
-0.274201 -4.175691 0.293180 100 100 100 100
-0.554441 0.232947 0.327529 96 96 96 96
3.428036 1.522217 1.243785 61 61 61 61
1.267025 -1.617674 1.042769 233 233 233 233
-2.259787 -6.543037 -0.506403 40 40 40 40
-2.559186 -6.763981 -0.713905 146 146 146 146
-2.558725 -6.588315 -0.503979 65 65 65 65
-2.368483 -6.794681 -0.422214 236 236 236 236
-0.917878 -5.743995 -0.108205 250 250 250 250
-2.291676 -6.595411 -0.106149 102 102 102 102
0.893226 -6.004228 -0.332586 110 110 110 110
-0.378966 -5.296866 0.026334 34 34 34 34
2.958858 -2.511601 0.018604 250 250 250 250
-0.182635 -5.100171 0.099817 107 107 107 107
-2.486937 -6.818237 -0.159875 76 76 76 76
-2.037075 -6.417020 -0.225039 163 163 163 163
-2.439491 -6.719739 -0.332036 146 146 146 146
-2.393772 -6.589216 -0.498288 213 213 213 213
-2.275084 -6.800030 -0.647261 133 133 133 133
-2.740227 -4.885014 -0.509699 234 234 234 234
-2.776715 -0.471983 0.672553 189 189 189 189
-1.519597 -3.309393 -0.544678 94 94 94 94
5.666914 0.981316 0.123725 254 254 254 254
-2.754004 -0.391886 0.770625 140 140 140 140
-2.219178 -3.909099 -0.952110 45 45 45 45
-5.485890 -2.591018 -0.095767 175 175 175 175
-4.088587 -3.472225 -0.365060 242 242 242 242
-4.057638 -3.452638 -0.356220 11 11 11 11
1.863220 -1.261087 0.039345 23 23 23 23
1.293902 -1.507807 0.678743 251 251 251 251
-0.148527 -1.869772 -0.169336 134 134 134 134
-0.617717 -5.483387 -0.045971 196 196 196 196
2.110601 -2.507001 0.532572 250 250 250 250
-0.378625 -5.232080 -0.462405 19 19 19 19
-0.901104 -5.663838 -0.520668 134 134 134 134
3.060922 -0.056497 -0.386741 133 133 133 133
-2.520077 -6.746592 -0.486875 190 190 190 190
-2.215326 -6.709078 -0.401575 2 2 2 2
-2.144796 -6.639238 -0.322873 129 129 129 129
-3.024562 -4.981055 0.156857 209 209 209 209
-4.014241 -4.523546 -0.756572 112 112 112 112
-4.045413 -4.889871 -0.540096 154 154 154 154
-1.937057 -3.871927 -0.918421 4 4 4 4
-1.704687 -2.805954 -0.708571 91 91 91 91
-1.566776 -3.827905 -0.922252 215 215 215 215
-2.649482 -3.300172 -0.409727 237 237 237 237
0.470449 -3.392787 -0.325405 31 31 31 31
2.326291 3.380103 1.390285 233 233 233 233
-1.450119 -4.103452 -0.977084 25 25 25 25
-1.560855 -2.845456 -0.461224 4 4 4 4
-1.263109 -3.288439 -0.544701 233 233 233 233
-1.427961 -4.104517 -0.719571 141 141 141 141
6.199815 0.139547 0.877473 104 104 104 104
-1.944725 -3.854960 -0.947981 18 18 18 18
-1.248737 -4.209821 -0.992876 122 122 122 122
1.501850 1.253678 0.203706 241 241 241 241
-1.460416 -0.478410 -0.342911 72 72 72 72
-4.212990 -3.433034 -0.377294 3 3 3 3
-4.112151 -3.448484 -0.443314 75 75 75 75
1.370768 -1.549966 0.631967 151 151 151 151
0.139192 -2.960904 -0.443008 236 236 236 236
1.763873 -1.226406 0.671849 49 49 49 49
-1.832431 -1.016747 0.708385 54 54 54 54
3.521243 -0.579857 0.474626 16 16 16 16
-2.295948 -6.726973 -0.343964 221 221 221 221
0.377743 0.928088 0.171004 160 160 160 160
-9.603983 -13.971230 -1.072815 93 93 93 93
-10.958816 9.363728 -3.185375 0 0 0 0
2.038726 -2.949301 -0.796712 9 9 9 9
0.974354 -0.001549 -0.386043 99 99 99 99
-1.578838 -3.294063 -0.877188 14 14 14 14
-1.920875 -0.779186 0.032428 69 69 69 69
-1.491021 -3.462992 -0.832813 135 135 135 135
-3.796177 -2.986939 -0.321022 35 35 35 35
-3.927574 -4.292372 0.267837 202 202 202 202
-5.541215 -2.528223 0.359537 193 193 193 193
3.244440 -1.750378 1.055506 118 118 118 118
0.999579 -4.087223 0.247347 71 71 71 71
1.622898 -2.587245 0.365817 132 132 132 132
3.166963 -0.447792 0.405779 44 44 44 44
-1.291848 -5.010879 0.124683 127 127 127 127
0.506996 0.870879 0.495199 99 99 99 99
5.290200 -0.416809 0.398379 104 104 104 104
-2.545375 -6.783909 -0.246921 120 120 120 120
-5.237618 -2.296031 0.270140 0 0 0 0
-1.850383 -0.853802 -0.357788 123 123 123 123
0.246994 -1.781446 -0.176787 19 19 19 19
1.594060 -3.222421 -0.876185 139 139 139 139
-2.598875 -2.674141 0.585730 130 130 130 130
-1.921574 -0.727080 -0.478391 23 23 23 23
0.843591 -0.289851 -0.422486 153 153 153 153
-0.257230 -0.881702 -0.201461 249 249 249 249
-1.388954 0.546290 0.374256 173 173 173 173
-1.983465 -0.896718 0.054051 96 96 96 96
-4.740778 -3.921430 0.255695 12 12 12 12
-1.631363 0.149877 0.710904 34 34 34 34
-1.479801 0.639012 0.440600 8 8 8 8
-4.154073 -2.938232 0.290713 82 82 82 82
2.644955 -2.795818 0.424698 144 144 144 144
2.345230 -1.509881 0.117038 24 24 24 24
-2.255659 -5.351591 -0.400572 240 240 240 240
2.974235 1.848482 -0.014341 1 1 1 1
0.055700 -3.443293 -0.540984 141 141 141 141
-2.255318 -5.352351 -0.375533 34 34 34 34
-2.232104 -6.534408 -0.254482 178 178 178 178
-2.718668 -6.221630 -0.816753 165 165 165 165
-0.025138 -4.808043 -0.403672 172 172 172 172
-1.397555 -5.778057 -0.714421 8 8 8 8
-0.140732 -4.973558 -0.408178 158 158 158 158
-2.146571 -6.128310 -0.720760 187 187 187 187
-2.591294 -6.433900 -0.552272 130 130 130 130
0.114480 -4.620581 -0.383035 75 75 75 75
2.809594 -2.453743 -0.003796 218 218 218 218
-1.786218 -2.383640 0.490923 107 107 107 107
-2.622776 -5.510239 -0.398133 19 19 19 19
2.211162 -1.379973 -0.108775 150 150 150 150
-0.512588 -0.481626 -0.033009 18 18 18 18
2.261955 -1.426121 0.183838 2 2 2 2
-1.265225 -0.904182 0.765408 95 95 95 95
2.016806 -2.277493 0.511181 134 134 134 134
0.290015 -3.530368 -0.546060 1 1 1 1
-10.171733 5.515326 1.834402 90 90 90 90
1.536738 -3.668044 0.248648 62 62 62 62
1.326284 -3.810757 0.255618 72 72 72 72
1.669375 -2.888020 -0.238504 183 183 183 183
3.154340 -0.153511 0.545057 11 11 11 11
0.524165 -3.845922 0.299577 156 156 156 156
1.869804 -1.417535 -0.128065 55 55 55 55
-2.787198 -1.888104 0.592414 97 97 97 97
0.479018 2.022329 -0.094353 4 4 4 4
1.294611 1.804659 0.331481 237 237 237 237
-0.740683 0.192416 0.256321 150 150 150 150
0.125433 0.959309 0.154363 223 223 223 223
1.086761 2.796078 0.916217 155 155 155 155
0.730359 1.469166 0.220170 228 228 228 228
0.392402 -3.560541 -0.523247 137 137 137 137
0.511517 -3.477049 -0.567520 132 132 132 132
2.398898 -1.792131 -0.187092 93 93 93 93
1.939164 3.561729 1.261847 174 174 174 174
1.691329 1.187671 0.033062 3 3 3 3
0.939846 -3.075311 -0.213724 10 10 10 10
1.982698 -2.604663 0.498127 177 177 177 177
1.724303 1.143229 0.110769 214 214 214 214
3.834459 -1.176261 -0.138340 233 233 233 233
-15.411796 -12.572459 0.688230 61 61 61 61
-2.720672 -7.844935 -0.860102 176 176 176 176
-4.626416 -3.183400 0.010136 66 66 66 66
-1.125463 -2.740937 0.436402 178 178 178 178
-1.392494 0.805312 0.390035 240 240 240 240
3.728711 1.730041 0.034650 126 126 126 126
2.297519 -1.642035 0.316176 135 135 135 135
-12.905384 -9.997425 -4.594204 0 0 0 0
-0.825918 -4.414165 -0.922016 165 165 165 165
-0.540482 -5.389341 -0.489456 44 44 44 44
-0.987613 -4.910087 -0.763570 199 199 199 199
0.334751 -4.562771 -0.337069 12 12 12 12
-0.815604 -5.293345 -0.919495 1 1 1 1
-1.466290 -2.034645 -0.157500 253 253 253 253
-2.240003 -6.561937 -0.477481 157 157 157 157
-10.361159 -14.648412 1.185866 56 56 56 56
-8.477149 -15.034565 0.074616 213 213 213 213
-3.144485 -6.212666 -0.657918 37 37 37 37
-2.868509 -6.527833 -0.608206 107 107 107 107
-2.848964 -6.531329 -0.681397 159 159 159 159
-15.233079 -12.289798 0.509115 77 77 77 77
-6.232026 -4.908363 -0.801148 110 110 110 110
1.472514 1.253584 0.335758 100 100 100 100
5.236920 -0.524997 0.866095 181 181 181 181
1.482724 -1.505806 0.461472 156 156 156 156
-2.167651 -5.364047 -0.960252 174 174 174 174
-2.322091 -5.497419 -0.634077 2 2 2 2
-2.063602 -5.353523 -1.115638 133 133 133 133
-2.908267 -5.686267 0.036774 6 6 6 6
2.664520 1.717790 -0.018083 176 176 176 176
-1.526453 -2.741429 -0.229416 111 111 111 111
-2.200695 -5.975332 -0.008993 136 136 136 136
3.418849 -0.994685 -0.186840 140 140 140 140
1.653112 -3.710901 0.275083 237 237 237 237
-9.157939 -13.545887 -1.304599 220 220 220 220
-29.676628 19.351585 5.645925 206 206 206 206
-3.617054 -5.488564 -0.451495 13 13 13 13
-0.399056 -5.139335 -0.409961 208 208 208 208
-2.876216 -5.288918 -0.510177 99 99 99 99
-1.498878 -2.650615 0.021948 172 172 172 172
-1.778058 -0.742219 -0.198611 252 252 252 252
0.084585 -3.399832 0.027440 124 124 124 124
0.504723 -0.288134 -0.464479 161 161 161 161
2.493025 -1.711401 -0.142842 6 6 6 6
1.956325 -3.158960 -0.043833 216 216 216 216
1.822408 -1.002747 -0.425401 53 53 53 53
2.375651 -1.528210 0.134004 13 13 13 13
1.315912 -3.858654 -0.048838 248 248 248 248
-3.930288 -4.799738 -0.199443 91 91 91 91
-0.182374 -4.987580 0.080251 101 101 101 101
-4.349233 -3.416248 -0.152030 150 150 150 150
0.184452 -3.097172 -0.262161 234 234 234 234
3.398378 -0.440780 0.413883 151 151 151 151
-1.469517 -3.099612 -0.187182 55 55 55 55
-4.179064 -2.677300 0.366342 211 211 211 211
-3.498722 -5.662182 -0.471102 136 136 136 136
0.544451 -2.659255 -0.408457 6 6 6 6
0.303550 -2.675413 -0.409344 38 38 38 38
-1.417310 -3.073670 -0.258477 244 244 244 244
1.849712 -1.458217 0.106998 90 90 90 90
2.985436 -2.347003 0.021415 158 158 158 158
1.850158 0.880922 -0.015170 8 8 8 8
2.208947 -5.208984 -0.065960 187 187 187 187
-2.286307 -5.554532 -0.658285 187 187 187 187
-3.075714 -5.253065 -0.383676 186 186 186 186
-2.608575 -5.905762 -0.564874 43 43 43 43
-0.588033 -7.269671 -1.097291 152 152 152 152
3.619501 -1.058360 -0.313839 66 66 66 66
-3.696279 -1.256977 0.113038 204 204 204 204
-2.965024 -0.609860 0.727953 128 128 128 128
-1.790967 -0.687405 -0.219455 3 3 3 3
-1.812349 -0.794813 0.173038 120 120 120 120
-1.455325 -1.647075 -0.083749 126 126 126 126
-1.577859 -2.699644 -0.155598 10 10 10 10
-1.101204 -3.467441 0.367077 245 245 245 245
2.389447 -1.552461 -0.087522 168 168 168 168
2.271176 -1.452591 -0.131496 3 3 3 3
0.572675 -2.201343 -0.331368 70 70 70 70
1.888968 -1.481269 0.208120 245 245 245 245
1.550461 0.596541 -0.272972 15 15 15 15
2.374589 3.245487 0.728757 3 3 3 3
2.441807 -1.597695 -0.095508 22 22 22 22
0.458333 0.659966 0.999748 181 181 181 181
1.191120 1.149950 -0.040861 22 22 22 22
0.687908 0.610686 0.997783 95 95 95 95
1.041323 1.748026 0.217144 40 40 40 40
0.478808 1.958276 0.179660 2 2 2 2
0.798133 1.849429 -0.121119 79 79 79 79
0.252765 0.938877 -0.197238 253 253 253 253
0.785369 1.732928 0.375116 106 106 106 106
0.221342 0.933288 -0.169245 39 39 39 39
0.324438 0.752989 0.967393 9 9 9 9
-0.821022 0.027529 0.150715 132 132 132 132
0.530128 0.997078 -0.283017 60 60 60 60
3.247682 -2.165357 0.509402 112 112 112 112
2.886441 -2.299625 -0.184583 180 180 180 180
2.488241 -1.715962 0.090629 129 129 129 129
2.387822 -1.574078 0.150402 2 2 2 2
2.870022 -2.283690 -0.215919 2 2 2 2
2.875351 -2.630067 0.444449 80 80 80 80
2.884259 -2.285885 -0.175463 5 5 5 5
1.062054 -4.068582 0.207653 45 45 45 45
-0.989694 -4.422859 -0.469830 35 35 35 35
-0.964305 -4.394588 -0.445013 194 194 194 194
4.876272 -2.214736 0.011976 137 137 137 137
2.678948 -2.257402 -0.544953 182 182 182 182
-0.619665 -5.192152 -0.526144 186 186 186 186
-0.753845 1.253175 0.974298 64 64 64 64
-1.725930 -2.806048 0.460605 234 234 234 234
-1.713008 0.337921 0.782897 226 226 226 226
-1.844538 -0.818128 -0.250603 15 15 15 15
-1.439004 -2.473530 -0.421879 8 8 8 8
-1.394971 -1.602899 0.002316 137 137 137 137
2.315474 -1.495993 0.200879 168 168 168 168
0.255619 -1.834675 -0.250583 45 45 45 45
-1.567849 -2.322755 -0.224558 116 116 116 116
1.971200 0.631421 0.046506 237 237 237 237
2.257708 0.924149 -0.228526 5 5 5 5
2.672366 2.579720 0.330197 29 29 29 29
1.844190 -1.431442 -0.022890 8 8 8 8
1.759527 0.687018 -0.287563 174 174 174 174
2.603434 2.533343 0.507536 147 147 147 147
1.791330 1.191689 -0.009063 4 4 4 4
1.415581 0.777987 -0.115951 53 53 53 53
1.632376 0.671701 0.058780 249 249 249 249
1.263356 0.808963 0.111231 243 243 243 243
1.413424 0.897041 0.020818 65 65 65 65
1.165232 1.682002 0.336197 133 133 133 133
1.323578 3.002670 0.751300 93 93 93 93
-0.513968 0.260424 0.074578 10 10 10 10
-4.670526 4.604893 1.607198 146 146 146 146
0.450772 0.699743 0.957411 37 37 37 37
0.344041 -2.947530 -0.395532 119 119 119 119
0.676768 -3.499233 -0.849413 33 33 33 33
3.904270 1.155238 0.995012 68 68 68 68
2.405523 -1.660457 0.120014 54 54 54 54
2.687223 -2.229214 -0.226799 6 6 6 6
1.859282 -1.388110 0.283085 123 123 123 123
2.007652 -3.109199 -0.025192 13 13 13 13
1.307612 -3.926958 0.228142 250 250 250 250
1.912395 -2.957835 -0.203522 3 3 3 3
3.240459 -1.354330 -0.222716 79 79 79 79
1.506897 -3.606964 -0.231176 214 214 214 214
1.900156 -3.156435 -0.103009 44 44 44 44
3.704990 -1.189518 -0.203687 72 72 72 72
-4.418625 -2.964703 -0.005209 135 135 135 135
-1.507918 -2.721942 -0.464549 46 46 46 46
-2.074977 -0.060953 0.288181 165 165 165 165
1.147922 0.993926 0.035765 64 64 64 64
6.365871 2.464389 0.748349 82 82 82 82
0.641542 -0.699723 0.783162 209 209 209 209
0.676663 1.608335 0.210493 200 200 200 200
0.254407 0.944868 -0.196041 249 249 249 249
-1.778109 -1.064960 0.707665 59 59 59 59
-1.413798 -0.403288 -0.068066 238 238 238 238
-1.692468 0.142803 0.083232 138 138 138 138
0.449757 0.709206 0.961365 37 37 37 37
-6.166041 0.949938 -2.179415 62 62 62 62
-1.232698 -0.463342 0.438715 130 130 130 130
-0.007709 0.068911 0.624723 138 138 138 138
2.329866 -1.895199 -0.274134 61 61 61 61
3.408553 -1.650256 0.662915 101 101 101 101
2.337468 -1.541710 -0.139941 50 50 50 50
2.123624 -1.610903 -0.283003 147 147 147 147
2.348415 -1.524274 0.091490 132 132 132 132
-2.502632 -6.777339 -0.301779 104 104 104 104
1.424512 -1.122884 1.013276 97 97 97 97
1.899823 -1.523846 0.181950 191 191 191 191
1.578576 3.053491 0.845522 229 229 229 229
2.029819 0.964036 -0.112562 248 248 248 248
0.827114 0.624388 1.010804 150 150 150 150
2.752466 -1.183602 -0.113508 2 2 2 2
2.663857 -2.555684 -0.146781 2 2 2 2
2.693229 -2.763123 -0.039927 142 142 142 142
