63
-0.616045 -0.366693 -2.157443 1 1 1 1
2.963700 -2.905563 -0.837171 139 139 139 139
-4.344061 0.027041 -2.626791 107 107 107 107
-3.751933 3.619500 -2.944750 244 244 244 244
-3.143322 2.724042 -2.812771 1 1 1 1
-1.106443 0.470434 -2.223476 43 43 43 43
2.884187 -2.771859 -2.844958 126 126 126 126
3.060322 -1.607161 -1.272744 79 79 79 79
-1.934358 -3.463802 -2.081489 111 111 111 111
-0.723525 -0.577510 -2.161274 5 5 5 5
0.118829 -2.972549 -1.851273 65 65 65 65
-2.846188 6.732672 -0.984913 100 100 100 100
0.119888 -2.985207 -1.959908 180 180 180 180
-1.251399 4.271677 2.379582 159 159 159 159
-0.875867 6.608978 -2.145889 7 7 7 7
-1.352386 -0.552278 2.521599 129 129 129 129
-2.246901 -3.380062 0.213348 180 180 180 180
-5.519233 3.857763 -2.966631 217 217 217 217
-3.290691 -3.040604 -1.687723 102 102 102 102
-3.208008 6.651169 -0.929018 19 19 19 19
-2.502541 -0.357911 -2.891293 239 239 239 239
-4.381266 0.103114 -2.568319 158 158 158 158
-2.448762 6.722466 1.127363 153 153 153 153
-5.894603 4.422767 -1.623301 80 80 80 80
-3.110804 4.541478 -2.456282 18 18 18 18
-5.501991 3.820680 -2.762075 8 8 8 8
-2.063693 2.544154 -2.553815 136 136 136 136
-4.388287 6.015164 -2.427786 202 202 202 202
-3.256933 6.532575 -1.418207 2 2 2 2
-3.097314 6.611299 -1.154280 34 34 34 34
-2.413816 7.011027 0.940356 233 233 233 233
-2.153816 6.950618 -0.932601 148 148 148 148
2.464788 -1.901149 -1.416379 220 220 220 220
-0.023689 -3.077784 -1.966749 182 182 182 182
2.629185 -2.529074 -1.267161 4 4 4 4
-2.474471 6.745998 -1.952458 161 161 161 161
-3.855794 3.435408 1.960030 170 170 170 170
-5.036170 5.934495 -0.553159 169 169 169 169
-2.364010 6.727676 1.112657 84 84 84 84
-2.345390 4.861818 -2.301379 165 165 165 165
-3.794672 6.437611 -1.083200 12 12 12 12
-4.014810 6.231368 -1.745222 5 5 5 5
-3.231794 6.556799 -1.169758 11 11 11 11
-3.310659 6.483671 -1.528801 152 152 152 152
-3.752966 6.265752 -2.101474 145 145 145 145
2.304799 -2.080248 -2.904355 115 115 115 115
2.263544 -1.993411 1.172041 229 229 229 229
2.315625 -2.327848 1.288875 2 2 2 2
2.645046 -2.079733 -1.355531 150 150 150 150
-2.852751 -4.523134 2.189964 131 131 131 131
-2.354213 6.837166 -0.851870 147 147 147 147
-0.977769 -7.838486 -3.215977 158 158 158 158
-2.976086 6.628763 -1.376967 58 58 58 58
-2.032157 6.945941 -1.885681 86 86 86 86
-4.453503 2.266592 1.919674 188 188 188 188
-2.230200 6.724791 -2.015477 138 138 138 138
-1.275743 7.806024 2.227514 111 111 111 111
1.390907 0.262062 -0.562360 151 151 151 151
-0.867163 6.590245 -2.227432 179 179 179 179
-2.385742 6.771144 1.510848 177 177 177 177
-9.754147 14.734191 -3.940538 1 1 1 1
-3.258713 -2.901269 -2.179936 149 149 149 149
3.143606 -1.874464 -1.487250 57 57 57 57
