1062
2.603565 -2.338689 0.207044 189 189 189 189
1.755590 3.935079 -0.185171 10 10 10 10
1.389464 3.733655 -0.008196 11 11 11 11
1.246218 3.733369 -0.140972 167 167 167 167
-1.192031 4.513089 -0.204370 237 237 237 237
1.734668 3.922207 -0.459089 204 204 204 204
1.836018 3.983551 -0.466591 14 14 14 14
1.603876 3.845151 -0.533385 71 71 71 71
1.373809 -0.714456 -1.214246 68 68 68 68
3.065457 -1.744553 -1.210927 172 172 172 172
1.717165 3.873925 -1.170388 28 28 28 28
-0.891847 1.582666 -0.688828 72 72 72 72
1.903038 4.024411 -0.336794 34 34 34 34
3.471851 -1.218796 -1.142926 59 59 59 59
1.253940 -2.017243 -0.354192 149 149 149 149
-1.091278 2.918090 1.139029 1 1 1 1
1.564686 3.838251 -0.706871 185 185 185 185
7.370896 -2.661339 -0.476050 219 219 219 219
1.760434 3.940847 -0.461379 166 166 166 166
0.972434 -1.543051 0.146237 135 135 135 135
-1.160783 2.070589 0.071780 146 146 146 146
1.946983 4.055241 -0.363822 90 90 90 90
1.494515 3.275664 2.498620 163 163 163 163
3.153030 -1.590546 -1.018823 180 180 180 180
3.689473 -1.805994 -0.073714 182 182 182 182
3.269765 -2.278330 0.591915 127 127 127 127
1.179648 -5.489768 0.269502 1 1 1 1
3.438025 -1.421945 -0.953646 143 143 143 143
3.125617 -2.348733 0.508828 161 161 161 161
1.637027 3.935282 -0.364091 70 70 70 70
3.497319 -1.700906 -0.303537 142 142 142 142
1.909792 3.937431 1.135830 229 229 229 229
2.093596 4.152677 0.086851 151 151 151 151
2.191594 4.210675 0.013352 96 96 96 96
3.902054 -1.081339 -1.214833 219 219 219 219
-0.846481 1.665357 -0.686164 150 150 150 150
1.255858 -1.988610 -1.174084 219 219 219 219
3.142001 -1.677173 -0.849517 58 58 58 58
1.679352 3.857141 -0.605797 54 54 54 54
1.644769 3.893523 -0.578694 215 215 215 215
3.863650 6.678764 0.466982 130 130 130 130
3.028102 1.596014 -0.161925 116 116 116 116
2.143329 4.179490 0.167705 150 150 150 150
1.647602 3.874178 -0.338316 23 23 23 23
1.600280 3.875485 -0.598037 62 62 62 62
-2.186307 4.891476 -1.113483 21 21 21 21
3.765289 -1.625981 -0.290886 157 157 157 157
2.477555 4.544814 0.205623 79 79 79 79
2.953619 1.421958 -0.112542 59 59 59 59
4.430465 0.080482 -1.303683 221 221 221 221
1.907356 1.183982 -0.719617 25 25 25 25
3.113309 -2.010592 -0.596826 6 6 6 6
-1.388376 1.389241 -0.055505 109 109 109 109
4.335685 -0.345733 -0.611895 2 2 2 2
2.156647 4.201183 -0.194786 179 179 179 179
0.833903 -6.278478 -1.109105 19 19 19 19
1.285158 -1.998052 -0.326516 20 20 20 20
4.060619 6.829511 0.590682 76 76 76 76
2.607385 -2.351267 -1.096940 70 70 70 70
2.058307 4.089861 -1.188991 141 141 141 141
3.138682 0.218902 0.456791 156 156 156 156
0.590530 1.946503 0.291288 38 38 38 38
2.073131 4.097942 -0.837114 100 100 100 100
1.614833 3.837396 -0.569601 62 62 62 62
0.667591 2.191611 2.775141 199 199 199 199
3.096997 1.308079 -0.344570 35 35 35 35
1.522560 3.797374 -0.113933 6 6 6 6
-1.348938 0.399832 -0.678517 1 1 1 1
0.461383 2.350174 0.904436 127 127 127 127
0.446777 4.758480 1.134403 230 230 230 230
2.776942 1.638515 -0.117598 173 173 173 173
3.092182 -1.829409 -0.813192 68 68 68 68
2.976075 -2.080558 -1.046307 3 3 3 3
3.200977 -1.576159 -1.238096 32 32 32 32
4.337567 -0.262432 -1.287260 151 151 151 151
3.405037 -1.820486 -0.436538 230 230 230 230
3.050817 -2.641155 -0.301143 145 145 145 145
3.453494 -1.844932 -0.601168 228 228 228 228
1.205620 -0.800782 0.341089 174 174 174 174
-2.031337 4.516545 0.996792 37 37 37 37
0.672045 0.789857 0.490950 102 102 102 102
1.336293 -0.543881 0.241829 85 85 85 85
1.530353 3.354179 2.630763 133 133 133 133
1.231028 0.802772 -1.212121 26 26 26 26
-2.098460 -0.624020 0.483090 137 137 137 137
-1.205014 1.933302 0.027843 54 54 54 54
0.417391 -1.647845 -1.163537 154 154 154 154
2.979495 -2.113253 -0.607714 2 2 2 2
0.003520 -1.070331 0.452057 174 174 174 174
4.950791 1.724799 -1.231477 118 118 118 118
-1.162356 4.474406 -0.271674 44 44 44 44
4.265434 -0.438345 -1.351574 136 136 136 136
-2.697680 3.478259 1.223665 105 105 105 105
1.079343 0.734258 0.518712 128 128 128 128
3.588008 -1.588498 -0.731189 242 242 242 242
-0.637651 1.931180 -0.838561 164 164 164 164
0.737740 -5.295268 -0.466891 95 95 95 95
-0.522885 -3.766683 -1.104694 92 92 92 92
-1.424023 1.236471 -0.140819 110 110 110 110
3.493243 -1.304028 -1.170514 64 64 64 64
-1.350790 0.745168 -1.109094 3 3 3 3
1.051073 0.915665 -0.745127 2 2 2 2
1.944625 1.088646 -0.738661 251 251 251 251
3.746807 -1.654852 0.030510 18 18 18 18
-1.508634 5.473675 1.159310 35 35 35 35
-1.297942 0.179450 -0.459600 245 245 245 245
-0.717305 3.914030 -1.188424 241 241 241 241
1.139722 3.495789 0.273063 103 103 103 103
-1.342059 0.693636 -1.154458 254 254 254 254
-1.782979 5.374542 0.772976 77 77 77 77
-1.840782 5.047163 1.053101 250 250 250 250
0.981916 3.198824 1.140528 130 130 130 130
3.559658 -1.689674 -0.788958 8 8 8 8
4.891613 1.835520 -1.276333 203 203 203 203
5.002150 5.635476 -0.754423 179 179 179 179
1.992882 4.049869 -1.099105 60 60 60 60
5.700604 5.281398 -1.312693 115 115 115 115
1.303804 3.748677 -0.094625 184 184 184 184
1.333700 -0.534609 0.201899 78 78 78 78
5.079584 1.821528 0.222323 169 169 169 169
1.759780 3.937218 -0.665199 183 183 183 183
-0.277158 1.451596 0.584653 0 0 0 0
1.794459 3.943445 -0.883322 42 42 42 42
-1.170419 4.491892 -0.025013 226 226 226 226
2.982594 -2.213977 -0.558481 95 95 95 95
3.854005 -1.519778 -0.482200 132 132 132 132
-1.062250 5.292703 1.154268 236 236 236 236
1.710404 3.900242 -0.309983 16 16 16 16
1.711242 3.904051 -0.554892 196 196 196 196
1.091024 3.222288 1.211943 128 128 128 128
-0.574001 2.241496 -1.088408 155 155 155 155
3.873646 -1.322694 -0.037524 55 55 55 55
-1.216819 2.936570 -1.178650 43 43 43 43
2.156034 0.254039 0.518333 106 106 106 106
-1.179015 4.503457 -0.075131 119 119 119 119
1.569173 3.798928 -0.574132 171 171 171 171
1.884474 4.016755 -0.439172 149 149 149 149
-1.693700 -0.423177 -0.499579 2 2 2 2
1.832963 -2.450395 -1.143574 127 127 127 127
5.039326 1.815196 1.122767 138 138 138 138
2.272483 4.285277 0.213690 181 181 181 181
4.649408 0.729111 2.482350 139 139 139 139
4.492596 0.718814 2.716270 118 118 118 118
2.593026 -2.394725 0.236987 82 82 82 82
3.294185 -2.395255 0.468196 61 61 61 61
-0.092075 1.028452 0.509030 252 252 252 252
-0.560394 -0.080381 -1.097329 40 40 40 40
-1.561401 0.297387 -0.989729 89 89 89 89
0.997103 1.108591 0.463335 101 101 101 101
1.567460 -1.803454 0.383189 154 154 154 154
-1.456167 1.254440 0.148280 185 185 185 185
-0.595054 0.395627 -0.842766 48 48 48 48
-0.491150 -1.035896 0.464362 252 252 252 252
1.238685 0.813228 -0.984016 61 61 61 61
1.085691 3.421659 0.773328 196 196 196 196
1.317310 3.718043 -0.052974 168 168 168 168
-0.276310 2.518077 1.976370 251 251 251 251
2.399795 4.468581 -0.175780 40 40 40 40
3.736137 -1.709417 -0.184302 40 40 40 40
3.566236 -1.093696 -1.178585 79 79 79 79
-1.092298 4.398221 -0.129518 224 224 224 224
3.859337 -1.384930 -0.288552 3 3 3 3
3.483426 -1.830940 -0.548096 9 9 9 9
3.550494 -1.314746 -1.144094 78 78 78 78
3.722750 -1.717833 -0.216091 237 237 237 237
-1.243674 -0.995819 -1.284570 124 124 124 124
3.789157 2.102544 -1.259509 122 122 122 122
3.278328 -1.270852 -1.154763 57 57 57 57
4.758689 -0.129372 -0.481794 113 113 113 113
0.294170 2.423774 1.434977 242 242 242 242
2.151843 4.376709 -1.062034 153 153 153 153
-1.369552 0.243180 -1.041430 13 13 13 13
0.655891 2.301827 2.725788 163 163 163 163
0.659962 -5.342469 -0.294300 153 153 153 153
-0.613708 0.003445 -1.118765 31 31 31 31
-0.429223 0.405824 -1.145079 169 169 169 169
0.276214 3.616149 -0.796513 197 197 197 197
-1.201257 2.948717 1.271435 135 135 135 135
1.186737 -1.605283 -0.305265 2 2 2 2
1.251381 3.742866 -0.091744 66 66 66 66
-0.313150 1.439650 -1.195300 149 149 149 149
-2.131474 4.697771 1.180619 172 172 172 172
-1.280831 0.758968 -0.993490 75 75 75 75
-1.339497 0.404230 -0.804617 112 112 112 112
0.772368 -6.197683 -1.242037 137 137 137 137
1.153416 3.598946 -0.871688 158 158 158 158
0.146171 3.727320 -0.227985 146 146 146 146
1.721252 3.885042 -0.787256 176 176 176 176
5.058048 1.876960 0.035944 57 57 57 57
-2.798430 4.073271 -0.802479 170 170 170 170
0.269226 3.716776 -0.304510 109 109 109 109
5.102411 1.881694 0.037301 65 65 65 65
3.207497 1.281702 2.681159 99 99 99 99
4.685969 2.129897 2.108159 66 66 66 66
2.792178 2.640376 -1.445157 135 135 135 135
2.509615 -2.109554 0.393849 67 67 67 67
-1.462121 -0.476943 -0.503149 4 4 4 4
-1.565573 0.514638 0.483702 107 107 107 107
-0.994448 1.724720 -0.658199 102 102 102 102
-1.322947 -0.718736 -1.187634 138 138 138 138
-0.040284 -1.200281 0.424172 76 76 76 76
-1.240876 1.873884 -0.022336 207 207 207 207
-0.616636 2.069180 -0.663571 27 27 27 27
2.559093 -2.289765 -0.463603 16 16 16 16
2.963904 1.297982 1.174398 113 113 113 113
4.955269 1.667521 1.454989 146 146 146 146
-0.748370 -1.191977 -1.134567 98 98 98 98
-1.217710 0.215854 -0.446159 232 232 232 232
-1.434242 1.371992 -0.144890 166 166 166 166
-0.764557 1.617023 -1.184415 250 250 250 250
4.878548 2.079600 -0.157019 9 9 9 9
3.247438 -1.752665 -0.452104 20 20 20 20
-2.686895 5.017561 -0.704881 145 145 145 145
1.461703 -0.616343 0.396976 224 224 224 224
-1.600147 5.301786 1.391687 194 194 194 194
3.518937 -1.590528 -1.010077 167 167 167 167
-0.701385 2.039143 -0.519669 239 239 239 239
3.365688 -1.246938 -1.240749 125 125 125 125
-0.725719 1.962050 -0.624490 199 199 199 199
2.995711 -2.067981 -1.012503 64 64 64 64
2.830998 -2.544187 -0.843808 24 24 24 24
2.638167 -2.354214 0.094143 43 43 43 43
3.017904 -2.144796 -0.468510 184 184 184 184
-2.890947 3.873070 -1.179079 254 254 254 254
3.285049 -1.218465 -1.243331 165 165 165 165
-1.418229 0.618386 -1.024645 96 96 96 96
1.204463 3.510385 0.311691 90 90 90 90
0.296774 3.780944 1.385485 111 111 111 111
1.672692 3.985380 -0.395885 57 57 57 57
0.950782 3.295245 1.214809 206 206 206 206
-2.007003 4.577089 1.030386 94 94 94 94
1.482443 3.818779 -0.105275 65 65 65 65
-1.301439 1.673512 -0.071327 127 127 127 127
3.772758 -1.576374 -0.082096 247 247 247 247
-1.716260 5.351118 0.976461 184 184 184 184
3.966012 -1.143641 -0.111561 32 32 32 32
2.513080 -2.389920 -1.118837 129 129 129 129
0.595467 2.077715 2.706277 4 4 4 4
-1.574670 1.138150 -0.984793 137 137 137 137
4.467852 0.519246 -1.337266 128 128 128 128
-0.579075 2.205822 -0.809554 139 139 139 139
4.426977 0.833009 1.090444 161 161 161 161
4.242813 -0.234993 0.039026 197 197 197 197
3.850512 -1.352054 -0.008740 39 39 39 39
4.669407 0.739953 1.456004 11 11 11 11
-0.925247 2.758894 0.501500 122 122 122 122
-2.537903 5.154413 1.114944 82 82 82 82
1.921914 4.106155 -0.704266 127 127 127 127
3.158443 -1.941911 -0.434133 230 230 230 230
2.795635 -2.597029 0.219836 115 115 115 115
2.919656 -2.280354 -0.678684 238 238 238 238
3.057336 -1.867043 -0.788158 222 222 222 222
3.899733 -1.259756 -0.360311 8 8 8 8
0.601337 -5.121451 -0.770854 129 129 129 129
1.207950 -1.591731 -1.098167 129 129 129 129
1.190536 -1.706312 0.271513 142 142 142 142
-1.822612 -0.314403 0.341712 145 145 145 145
-1.362479 0.389855 -0.638722 15 15 15 15
0.835486 2.968203 1.374877 123 123 123 123
4.310237 -0.338509 -0.656690 12 12 12 12
-1.273078 0.643353 -0.447610 140 140 140 140
-1.482436 -0.273335 -0.650811 8 8 8 8
4.943582 1.579875 1.470764 149 149 149 149
2.212987 -2.170899 0.200649 165 165 165 165
4.556854 0.733637 0.970704 4 4 4 4
4.664960 0.814091 1.250892 126 126 126 126
-2.220568 3.351225 1.075906 73 73 73 73
-1.811397 3.800676 1.122935 113 113 113 113
2.186541 2.202297 -0.068510 170 170 170 170
4.800731 1.968593 -1.242299 153 153 153 153
3.790480 -1.641985 0.079362 144 144 144 144
3.340767 -2.440527 0.352130 111 111 111 111
-0.300704 0.284860 -0.713631 40 40 40 40
3.817991 -1.454513 0.042246 8 8 8 8
3.455942 -1.639257 -0.878889 163 163 163 163
2.972487 -2.186958 -1.093873 34 34 34 34
-0.738023 1.617643 -1.182667 248 248 248 248
4.955801 1.845724 0.222860 168 168 168 168
3.366265 0.032274 0.515819 119 119 119 119
-3.293217 3.871125 1.212123 73 73 73 73
-2.920689 3.958221 -0.887744 142 142 142 142
2.364549 1.031473 -1.219428 4 4 4 4
-0.405520 0.575941 -1.198322 254 254 254 254
4.123713 -1.111083 -0.270182 160 160 160 160
4.018686 -1.888532 -0.330845 0 0 0 0
2.589720 -2.388138 -1.209043 248 248 248 248
0.625131 2.243296 1.488269 71 71 71 71
-2.150626 3.375894 -1.145157 225 225 225 225
2.113046 -2.328189 -1.065544 16 16 16 16
3.609247 -1.796808 -0.387104 232 232 232 232
3.476921 -1.272371 -1.154693 65 65 65 65
3.624428 -1.132686 -1.269523 59 59 59 59
1.377119 -0.268128 -0.806691 61 61 61 61
-2.653715 3.457834 -0.688081 204 204 204 204
-1.745643 0.586227 -0.673187 59 59 59 59
-0.556169 3.941683 -1.282752 184 184 184 184
-1.983603 -0.719241 0.562240 83 83 83 83
2.239668 4.228801 -0.837242 164 164 164 164
0.934149 0.968728 0.508505 136 136 136 136
4.718766 1.666146 -0.329686 6 6 6 6
-1.096215 2.640839 -1.175167 45 45 45 45
3.114128 -1.722048 -1.028456 171 171 171 171
4.704696 -0.142011 -0.457868 184 184 184 184
-1.781162 5.518680 0.778024 61 61 61 61
2.918411 -2.293160 -0.607518 16 16 16 16
5.080285 -0.407750 -0.996745 122 122 122 122
3.425860 -2.409900 0.437759 156 156 156 156
-1.302641 1.674808 0.155444 202 202 202 202
-2.903938 4.241432 -0.788020 62 62 62 62
2.010781 4.148883 -0.120334 94 94 94 94
-2.058449 4.461304 1.003377 29 29 29 29
-0.914785 2.765997 -1.184266 212 212 212 212
1.032416 -1.700692 -1.227061 224 224 224 224
5.428891 4.561694 -1.285452 199 199 199 199
1.495651 3.796523 -0.181708 42 42 42 42
-0.213958 1.497036 -2.576262 108 108 108 108
-0.323974 -4.350362 -0.613995 129 129 129 129
0.959850 0.706433 0.477093 84 84 84 84
1.822365 -3.642204 -0.552594 137 137 137 137
4.682951 5.114569 -0.808322 158 158 158 158
5.382086 4.807166 -0.797292 132 132 132 132
-1.996690 4.540110 0.978669 44 44 44 44
-2.228558 3.242633 -1.174669 251 251 251 251
1.437311 3.197716 2.499170 56 56 56 56
1.635511 -4.177592 -0.235003 150 150 150 150
0.376360 4.424460 1.151256 188 188 188 188
0.374953 4.370335 1.144007 101 101 101 101
-2.269701 -4.931917 -0.559871 240 240 240 240
-2.639585 -0.886830 0.270609 144 144 144 144
3.930635 -1.126563 -0.022433 2 2 2 2
0.258132 3.591706 -0.188377 139 139 139 139
1.955824 4.064921 -0.438096 163 163 163 163
-0.961590 1.753396 -1.044270 60 60 60 60
3.222548 -2.259785 0.378222 107 107 107 107
3.320349 -2.228935 0.331571 150 150 150 150
-2.070762 -0.602050 -0.432609 153 153 153 153
-0.562558 2.103529 -1.020036 141 141 141 141
-1.151006 -0.027670 -0.767639 138 138 138 138
1.163319 3.414563 -1.232412 208 208 208 208
1.502903 3.822173 -0.699752 55 55 55 55
3.936604 -0.732088 -1.235934 139 139 139 139
2.204503 0.445575 0.521086 126 126 126 126
3.727927 -1.676764 0.044668 133 133 133 133
1.568179 3.797918 -0.574036 183 183 183 183
0.946191 -2.067486 0.289833 104 104 104 104
3.843987 -1.310805 -0.286724 16 16 16 16
3.132522 -1.746934 -1.175001 133 133 133 133
3.887259 -1.250590 -0.162014 134 134 134 134
2.047305 0.626489 -0.723455 103 103 103 103
-1.320267 1.710381 -0.004213 208 208 208 208
2.139018 0.588417 -0.732018 139 139 139 139
4.819788 1.813619 -1.231525 218 218 218 218
-2.013052 4.967882 1.032674 60 60 60 60
-1.271750 -5.159493 -0.459709 225 225 225 225
0.389154 -3.233738 -1.189342 124 124 124 124
0.769180 3.634332 -0.208944 115 115 115 115
1.352527 0.442101 -0.474413 237 237 237 237
-0.608046 -4.672335 -0.899366 208 208 208 208
-1.345723 0.251956 -0.809992 127 127 127 127
5.071851 2.349200 -0.201914 137 137 137 137
2.172296 4.167315 -0.814676 42 42 42 42
1.981447 4.072848 -1.125613 152 152 152 152
1.435262 3.793042 -0.179773 55 55 55 55
-1.421605 0.270307 -0.674792 18 18 18 18
2.159651 4.194956 -0.980163 52 52 52 52
-1.625592 0.549572 -0.311223 62 62 62 62
4.547100 0.855906 -1.281313 245 245 245 245
4.345150 0.157128 -1.137772 140 140 140 140
2.308625 4.437658 -0.108435 19 19 19 19
3.841261 -1.387110 -0.083775 210 210 210 210
1.232704 3.395963 -1.077364 147 147 147 147
-1.025924 1.849223 -0.859752 155 155 155 155
3.007417 -2.163225 -0.583187 89 89 89 89
2.988371 -2.200392 -0.576387 85 85 85 85
5.031711 2.493264 -0.478319 147 147 147 147
1.238904 -0.034878 -0.714620 67 67 67 67
0.891407 3.636172 -0.321010 118 118 118 118
2.802981 0.387235 -0.993543 70 70 70 70
2.266130 4.442755 -0.563790 105 105 105 105
3.013155 -2.152626 -0.473465 2 2 2 2
1.248612 -5.220919 0.266664 5 5 5 5
3.281387 -1.384611 -1.213566 33 33 33 33
1.068606 3.417300 -1.098368 65 65 65 65
3.422582 -1.099043 -1.222877 160 160 160 160
4.468108 6.674214 -1.032973 128 128 128 128
4.524423 0.564616 2.535064 102 102 102 102
1.443652 -3.281519 0.063133 0 0 0 0
0.274004 -3.505646 -0.618500 245 245 245 245
-1.404953 1.369262 -0.139312 55 55 55 55
2.462283 0.311818 -0.979931 83 83 83 83
3.466628 -1.219398 -1.099320 150 150 150 150
1.448761 -2.558643 -0.855335 114 114 114 114
3.311888 -1.263505 -1.240029 6 6 6 6
3.091488 -1.762495 -0.650730 152 152 152 152
-0.486905 -1.178873 -1.153346 93 93 93 93
-1.127742 4.438541 -0.117222 53 53 53 53
-1.979211 -5.263977 -0.961794 140 140 140 140
1.531011 -1.499035 0.510607 210 210 210 210
-1.104238 4.350337 -1.135397 181 181 181 181
-1.527499 -1.267491 -0.623327 172 172 172 172
-1.722516 5.332873 0.957362 110 110 110 110
-1.137607 4.446117 -0.232436 131 131 131 131
2.542371 -2.308834 -1.186788 234 234 234 234
1.464746 -0.372843 0.200421 133 133 133 133
3.680170 -1.722211 -0.235541 190 190 190 190
2.175446 4.262288 -0.429633 201 201 201 201
3.674918 -1.733807 -0.267622 222 222 222 222
-0.801176 -5.858902 -0.519947 154 154 154 154
-1.497919 -5.605594 -0.466881 147 147 147 147
2.712886 -2.403610 -0.915996 1 1 1 1
-3.262121 -2.684158 -0.233869 21 21 21 21
1.996434 -2.719669 0.328383 138 138 138 138
2.985275 -2.050709 -0.693078 75 75 75 75
2.328157 0.345740 -1.142693 38 38 38 38
4.214705 1.923976 -1.230052 235 235 235 235
-1.413504 1.350465 -0.132611 29 29 29 29
2.950014 0.502380 -1.225913 143 143 143 143
3.930086 -1.097665 -0.182538 47 47 47 47
1.657764 6.205642 0.540283 248 248 248 248
2.782506 5.384773 0.305299 11 11 11 11
2.492703 0.653145 -0.950458 148 148 148 148
4.145291 6.933027 1.019450 109 109 109 109
-0.683572 2.518703 -0.710786 26 26 26 26
3.728241 -1.672750 -0.132998 138 138 138 138
1.432506 3.183787 2.447413 88 88 88 88
3.837219 -1.366260 -0.286810 1 1 1 1
-1.664812 5.183848 1.423696 90 90 90 90
3.696516 -1.737577 -0.325912 163 163 163 163
3.107346 -1.717107 -0.695778 176 176 176 176
2.955987 -2.139573 -0.866310 9 9 9 9
3.648767 -1.323675 -0.946205 147 147 147 147
1.067920 -5.489511 0.143487 120 120 120 120
1.138512 -1.540422 -0.235083 127 127 127 127
4.193692 0.982176 0.781116 4 4 4 4
1.471092 -4.649798 -0.610072 185 185 185 185
4.351392 1.971627 -0.328100 147 147 147 147
1.893000 1.157687 -0.706731 196 196 196 196
3.634946 -1.535192 -0.290735 174 174 174 174
-1.719069 5.594936 0.666628 51 51 51 51
0.086090 -3.447070 -0.646526 136 136 136 136
-1.790039 0.272080 -0.423864 72 72 72 72
-0.264112 0.900950 0.476923 247 247 247 247
-0.725719 1.962050 -0.624490 199 199 199 199
2.096298 3.340152 -1.136079 121 121 121 121
0.390203 1.985309 -1.141668 52 52 52 52
3.757439 -1.589871 -0.082509 212 212 212 212
3.765217 -1.545412 0.059423 163 163 163 163
3.908607 -1.194798 -0.084342 43 43 43 43
3.840086 -1.320297 -0.267960 2 2 2 2
-1.154209 4.463924 -0.243279 255 255 255 255
4.555727 0.942648 -1.211293 187 187 187 187
3.172690 -1.755427 -0.390741 2 2 2 2
-1.222055 0.583628 -0.514962 81 81 81 81
-0.844668 3.609839 1.216327 215 215 215 215
-2.409179 -2.020254 -1.066417 52 52 52 52
2.998112 -2.049761 -0.877470 173 173 173 173
-1.886485 -3.751936 -0.512133 119 119 119 119
0.647989 -5.590894 -0.396829 146 146 146 146
3.322796 -2.532645 0.328577 62 62 62 62
1.840500 4.028720 -0.563423 93 93 93 93
2.599648 4.895176 -0.597662 80 80 80 80
-2.317677 3.629921 0.943196 150 150 150 150
-2.362026 3.597436 0.982965 151 151 151 151
4.396831 -3.014285 -1.902495 153 153 153 153
-2.435048 3.341967 1.193979 91 91 91 91
2.552784 1.390173 -0.715968 8 8 8 8
1.484834 3.832910 -0.182453 51 51 51 51
3.298812 -1.602483 -0.936796 158 158 158 158
2.123531 -2.599146 -0.096244 137 137 137 137
0.866342 -1.624991 0.402278 151 151 151 151
3.076135 -1.798805 -0.702813 141 141 141 141
-0.523608 -1.152239 -1.140623 168 168 168 168
2.150098 4.233062 -0.042571 140 140 140 140
-1.590753 0.585350 0.434352 60 60 60 60
1.464512 -0.476602 0.235006 131 131 131 131
3.335246 -1.684811 -0.495924 219 219 219 219
-2.364081 3.541399 1.059464 138 138 138 138
-1.168067 1.639254 -0.638227 96 96 96 96
0.576739 -4.498455 0.721297 112 112 112 112
2.993338 -2.101171 -0.605599 160 160 160 160
3.300153 -2.518478 0.355076 155 155 155 155
3.092117 -1.567830 -1.208964 198 198 198 198
-1.712403 5.531636 -1.131762 11 11 11 11
-1.398038 1.390777 0.142437 129 129 129 129
6.944796 -0.063536 2.529374 166 166 166 166
3.454739 1.233049 0.678806 128 128 128 128
-1.175175 4.487272 -0.288330 81 81 81 81
3.740300 -1.616022 -0.194539 205 205 205 205
-2.721154 4.419289 -0.815705 69 69 69 69
2.595011 2.679283 1.143492 188 188 188 188
3.381314 -2.766415 0.360397 82 82 82 82
3.048227 -1.905241 -0.654327 227 227 227 227
0.924831 2.167279 2.699624 152 152 152 152
-1.428431 1.322996 -0.145900 70 70 70 70
-0.454663 -5.946624 -0.263609 145 145 145 145
2.505973 -2.274956 -0.309649 9 9 9 9
1.052540 3.658610 0.366381 120 120 120 120
3.128498 -1.722573 -0.968835 122 122 122 122
-1.159750 4.476497 -0.250116 68 68 68 68
-1.164532 4.400154 -1.022282 95 95 95 95
-0.849347 2.056592 -0.709176 86 86 86 86
3.884274 -1.216220 -0.032889 30 30 30 30
-1.168569 1.644417 -0.640353 117 117 117 117
0.685013 -5.439142 -0.977324 243 243 243 243
3.096556 -1.624917 -0.869455 150 150 150 150
3.366861 0.099147 0.484049 251 251 251 251
-2.201083 3.197335 0.153761 31 31 31 31
3.190842 -0.103470 0.402850 114 114 114 114
3.583427 -1.792344 -0.343731 127 127 127 127
-1.309308 -5.583351 -0.503157 105 105 105 105
-1.665904 -0.392392 -0.520627 246 246 246 246
-1.151042 2.091276 -0.033393 228 228 228 228
-1.382462 1.468476 -0.143251 61 61 61 61
3.574487 -1.771337 -0.791528 58 58 58 58
-2.201669 3.971197 1.065839 123 123 123 123
2.082450 4.253113 -1.100404 152 152 152 152
4.238844 1.192497 0.657536 140 140 140 140
3.922061 -1.147902 -0.283937 11 11 11 11
2.903242 -2.141438 -0.870752 186 186 186 186
4.940240 1.922931 0.218306 155 155 155 155
1.795698 3.959910 -0.677477 66 66 66 66
-1.518348 0.403164 -0.695046 5 5 5 5
1.228519 -0.051892 -0.708433 253 253 253 253
-0.273712 3.805178 1.145927 94 94 94 94
-2.041854 -0.440275 0.321948 93 93 93 93
-0.571768 3.848195 0.341689 123 123 123 123
-1.681737 5.370544 0.796078 214 214 214 214
1.112517 0.454448 -0.741675 234 234 234 234
1.685773 3.919606 -0.424002 76 76 76 76
-1.467932 5.853185 0.986267 222 222 222 222
3.045738 5.196221 -1.268145 135 135 135 135
3.055674 -1.741979 -1.048668 10 10 10 10
4.316782 -2.611776 1.244389 104 104 104 104
-2.337598 -1.958164 -1.121193 153 153 153 153
4.640527 0.792718 2.644058 2 2 2 2
-0.919401 2.755351 -0.476321 183 183 183 183
4.416396 -0.223031 0.021351 173 173 173 173
6.473582 0.058963 -0.102587 130 130 130 130
-1.243899 4.440343 -1.044762 166 166 166 166
-2.617180 4.702740 -0.706424 110 110 110 110
0.803899 3.046365 1.435364 211 211 211 211
6.071009 -3.627427 2.381230 186 186 186 186
0.607499 -2.027207 -0.945113 218 218 218 218
2.992360 -1.979989 -0.738465 97 97 97 97
0.213669 3.631656 -0.784623 154 154 154 154
2.010943 -3.339408 0.038198 85 85 85 85
-1.446113 1.261267 -0.141635 41 41 41 41
-1.289473 1.693102 -0.167443 249 249 249 249
-1.231655 -1.693385 -1.100800 3 3 3 3
-3.330150 -3.178016 -0.975763 125 125 125 125
1.370900 -0.018796 -0.839140 30 30 30 30
1.284069 -0.627439 -1.141708 24 24 24 24
2.056483 -2.370348 -1.193623 9 9 9 9
4.957009 1.790176 -1.184290 123 123 123 123
0.014992 -6.078165 -0.577719 151 151 151 151
0.241436 3.626112 -0.797476 207 207 207 207
-0.438809 -1.030147 0.449315 175 175 175 175
0.078140 -1.184475 -1.187276 125 125 125 125
1.107560 -0.993183 -1.203515 114 114 114 114
1.049352 -1.640342 0.428356 85 85 85 85
-0.757690 -1.181956 0.467530 57 57 57 57
-2.424487 3.773496 1.334971 106 106 106 106
-2.256342 3.708162 -0.341005 121 121 121 121
-0.564109 3.996347 -0.028570 61 61 61 61
0.954024 -5.769894 -1.118640 129 129 129 129
1.024733 6.264793 1.070493 195 195 195 195
3.180813 -2.003315 -0.352454 191 191 191 191
0.612020 -1.476519 -1.124978 200 200 200 200
2.012292 -2.336971 -1.239444 133 133 133 133
2.954084 -2.092229 -1.008477 204 204 204 204
2.081908 -2.449108 -1.153752 14 14 14 14
-0.963061 -5.742153 -0.662106 160 160 160 160
2.010943 -3.339408 0.038198 85 85 85 85
0.267052 -3.466570 -0.547083 247 247 247 247
2.140920 -2.400756 -0.794752 121 121 121 121
-2.624203 5.463085 0.926147 61 61 61 61
-3.315992 -2.715951 -0.406095 1 1 1 1
1.647588 -4.172193 -0.310091 146 146 146 146
4.278633 -2.957498 -1.752903 149 149 149 149
1.555666 -4.468208 -0.130452 145 145 145 145
-0.914824 -5.803593 -0.579395 143 143 143 143
-2.848316 -1.820377 -0.619857 164 164 164 164
1.458632 3.327650 1.189738 133 133 133 133
-1.838703 5.474570 0.630798 14 14 14 14
2.916974 -2.242863 -0.309351 124 124 124 124
1.627470 -2.403419 -1.091577 106 106 106 106
0.253080 3.711920 2.200703 99 99 99 99
-1.699574 3.379329 -0.105536 149 149 149 149
-1.645633 5.566841 0.959503 78 78 78 78
-1.594098 5.511502 1.092908 84 84 84 84
0.641414 2.210510 1.318598 40 40 40 40
4.260693 2.318709 2.296026 158 158 158 158
3.225188 -1.800471 -0.608808 38 38 38 38
-0.644663 -0.968427 0.430481 20 20 20 20
0.901612 3.511509 -1.181521 91 91 91 91
-1.690557 3.073615 -0.411983 48 48 48 48
-1.880576 5.355205 -1.140686 229 229 229 229
-1.219975 4.533374 -0.348421 191 191 191 191
-0.556958 0.023815 -1.203318 230 230 230 230
-0.226580 3.914146 2.449845 103 103 103 103
-0.297827 3.789438 0.006130 112 112 112 112
3.517695 -2.337231 0.510831 26 26 26 26
-1.755630 5.436789 0.308570 156 156 156 156
-1.872645 5.486210 0.280940 91 91 91 91
0.286937 3.605588 -0.770482 2 2 2 2
1.439324 -1.691143 -1.114788 152 152 152 152
-1.748968 3.391543 -0.088489 23 23 23 23
0.310155 -0.928388 -1.179618 138 138 138 138
-1.404038 5.185701 1.158203 117 117 117 117
0.542310 2.231201 1.500867 144 144 144 144
0.602124 2.283416 1.233098 114 114 114 114
-0.023579 1.255403 0.530108 150 150 150 150
-2.246371 -2.183614 -0.758555 0 0 0 0
-2.649840 4.514385 -0.756495 209 209 209 209
-1.602650 5.568612 0.845109 69 69 69 69
-3.282716 3.666063 1.350390 99 99 99 99
3.101743 -1.749113 -0.800706 93 93 93 93
0.461877 2.273660 0.483590 116 116 116 116
0.339081 2.438659 0.316311 118 118 118 118
2.385884 3.748695 -1.137205 9 9 9 9
-0.781764 3.902694 0.786301 134 134 134 134
-1.104389 4.406821 -0.284067 253 253 253 253
1.027378 3.551525 -1.198087 70 70 70 70
-1.710417 3.073075 -0.409388 172 172 172 172
0.474624 2.235418 2.648140 163 163 163 163
0.448763 2.122974 2.664784 146 146 146 146
0.570363 2.249881 1.527540 108 108 108 108
-2.711279 4.445152 -0.806386 219 219 219 219
-2.646792 4.669295 -0.690245 97 97 97 97
-2.510472 5.018890 -1.121578 63 63 63 63
-1.611324 5.294165 -0.946163 194 194 194 194
-1.136549 4.452195 -0.191065 46 46 46 46
-1.183402 4.498661 -0.270076 206 206 206 206
-1.728509 5.633748 0.829584 70 70 70 70
-1.507142 5.258252 0.021023 113 113 113 113
-2.200285 4.033929 1.227662 143 143 143 143
-1.156184 4.472034 -0.087415 216 216 216 216
-1.278357 4.638727 -0.234522 111 111 111 111
1.058212 3.421806 -1.016839 212 212 212 212
0.692642 1.838141 -0.478989 4 4 4 4
1.758220 0.724319 0.467377 230 230 230 230
-1.411531 5.272819 1.153791 180 180 180 180
3.533538 0.688173 0.405702 74 74 74 74
-1.459160 5.047280 1.185257 114 114 114 114
-3.527056 -4.927223 0.284940 2 2 2 2
0.876167 3.086121 1.472631 189 189 189 189
0.582593 2.160719 1.406032 56 56 56 56
-2.550339 5.052816 -0.738645 146 146 146 146
-1.116197 4.421224 -0.028325 250 250 250 250
-1.015347 5.208064 1.139134 161 161 161 161
-1.607605 5.583955 1.540074 89 89 89 89
-1.268782 4.642018 -0.159515 112 112 112 112
1.008115 3.492568 -0.954105 38 38 38 38
3.101261 2.348252 -1.216543 124 124 124 124
0.226255 3.639312 -1.111902 101 101 101 101
-2.246224 3.615588 1.028240 112 112 112 112
-1.811689 4.857848 0.998176 6 6 6 6
-1.997362 4.575582 1.056346 136 136 136 136
-1.587174 5.449908 0.843536 41 41 41 41
-0.016088 4.512623 1.122264 171 171 171 171
0.375680 4.423739 1.198141 110 110 110 110
0.418203 2.305625 -1.158254 199 199 199 199
-0.648309 2.593524 1.451834 138 138 138 138
-1.587700 5.296932 -0.712285 154 154 154 154
4.496426 0.929608 1.124012 14 14 14 14
-2.443224 3.469695 1.053850 120 120 120 120
-1.180635 4.496607 -0.206008 224 224 224 224
-1.795105 5.428162 0.696408 38 38 38 38
-1.684771 3.053548 0.129926 144 144 144 144
-2.568152 3.472028 1.120865 134 134 134 134
-2.270441 5.544079 -0.229251 116 116 116 116
0.978652 1.605425 -0.475231 170 170 170 170
-1.092637 4.398212 -0.129406 209 209 209 209
4.430950 1.970759 0.229167 149 149 149 149
4.199069 0.906623 0.897258 207 207 207 207
1.547704 1.814969 1.537288 149 149 149 149
-1.594724 5.359694 -0.428644 155 155 155 155
-0.057151 2.510386 2.743537 115 115 115 115
-1.746011 3.436504 -0.062362 175 175 175 175
-1.068553 2.943603 1.574863 102 102 102 102
-1.730529 3.414701 -0.040415 73 73 73 73
-1.768844 3.361029 -0.096062 131 131 131 131
-1.745287 3.415663 -0.045588 107 107 107 107
-1.754199 3.380829 -0.092388 43 43 43 43
-1.954642 4.464363 0.959843 122 122 122 122
-2.728972 5.621779 1.045938 123 123 123 123
-1.199814 4.517979 -0.254764 49 49 49 49
-1.900069 5.385006 -1.140345 54 54 54 54
-1.209870 4.535359 -0.128734 222 222 222 222
-1.145094 4.384854 -0.996598 87 87 87 87
-1.564946 3.478820 -0.042978 119 119 119 119
5.180701 1.861909 2.202297 124 124 124 124
-1.110131 4.377149 -0.180113 46 46 46 46
-1.348625 5.086636 1.248298 114 114 114 114
-1.140908 4.286028 -1.072487 63 63 63 63
-1.917520 4.952708 1.319703 18 18 18 18
0.218889 2.287945 2.508053 117 117 117 117
-2.382051 3.374257 1.061098 162 162 162 162
-1.691167 3.086151 -0.396671 169 169 169 169
-0.576325 3.972996 0.433136 157 157 157 157
0.665600 1.939527 2.644558 97 97 97 97
-1.107293 4.418342 -0.035807 40 40 40 40
-1.746904 3.432498 -0.080463 117 117 117 117
-1.486229 5.043131 -0.471500 165 165 165 165
-1.309917 4.575926 -0.119059 102 102 102 102
-1.472656 4.937539 -0.738807 175 175 175 175
-1.873630 4.515864 1.034422 0 0 0 0
-1.633845 5.514664 -0.887009 99 99 99 99
-2.863670 4.394746 0.140255 108 108 108 108
2.187546 -2.516631 -0.664583 156 156 156 156
-1.090774 4.372061 -1.042830 186 186 186 186
-1.631235 5.571095 -0.092686 7 7 7 7
-0.713641 3.895956 -1.003761 130 130 130 130
-0.762838 4.167891 -1.210545 100 100 100 100
-1.708065 3.066657 -0.289256 143 143 143 143
-1.660125 4.854393 1.278787 151 151 151 151
-1.740018 5.326592 0.980012 107 107 107 107
-1.955141 3.921938 0.671181 161 161 161 161
-1.713678 3.090865 -0.340001 162 162 162 162
-1.705778 3.067920 -0.462781 158 158 158 158
-2.193703 4.071567 1.070160 91 91 91 91
-2.120744 4.103301 1.025419 131 131 131 131
-2.231980 3.858105 1.048312 113 113 113 113
-2.289810 3.844440 1.004866 152 152 152 152
-0.303806 3.861332 -0.295220 60 60 60 60
-3.061759 -2.469274 -0.995586 152 152 152 152
-2.353214 3.680090 1.008755 154 154 154 154
0.093325 4.629505 1.174819 182 182 182 182
-1.161840 4.483016 -0.017667 75 75 75 75
-1.117736 4.409528 -0.250611 83 83 83 83
-1.126315 4.421289 -0.270717 53 53 53 53
-1.198850 4.553758 -0.272466 222 222 222 222
-1.818025 5.401042 -1.009538 24 24 24 24
-1.259354 4.593633 -0.204675 243 243 243 243
-0.473394 3.998926 0.451119 155 155 155 155
-1.140581 4.454004 -0.105843 53 53 53 53
-1.176067 4.337658 -0.257587 39 39 39 39
-1.283828 4.630118 -0.270469 26 26 26 26
-3.221392 -2.648952 -0.439616 170 170 170 170
-1.172724 4.474035 -0.253703 238 238 238 238
-1.987344 5.692871 -1.116349 6 6 6 6
0.941430 3.448894 -0.243352 187 187 187 187
3.309348 -1.213451 -0.441367 85 85 85 85
4.243278 1.723919 -1.066758 131 131 131 131
0.975621 3.379773 -1.140765 103 103 103 103
0.676720 1.753034 -1.000590 147 147 147 147
1.786604 1.836600 2.712078 84 84 84 84
-0.851290 2.693296 1.448040 149 149 149 149
-1.348348 3.021483 1.101998 81 81 81 81
-0.596279 2.623359 1.098554 114 114 114 114
-0.878360 2.787711 0.482622 204 204 204 204
-1.064409 2.910739 1.227812 130 130 130 130
1.303342 -5.231288 0.323605 111 111 111 111
-2.456989 3.404804 1.017284 139 139 139 139
3.764105 -1.582422 0.153006 146 146 146 146
-3.683917 -3.243396 -0.958078 194 194 194 194
-2.413167 3.377398 1.134450 111 111 111 111
-1.697800 3.415967 -0.072934 182 182 182 182
-1.775103 3.439820 -0.073269 139 139 139 139
-1.713389 3.427252 -0.066153 117 117 117 117
-1.246775 4.553181 -0.023616 85 85 85 85
-1.776539 3.437000 -0.079015 88 88 88 88
-0.653605 3.941185 0.089954 133 133 133 133
-4.348387 -3.964693 0.753157 100 100 100 100
-1.274403 4.598937 -0.180020 226 226 226 226
-2.484833 3.779132 1.259040 95 95 95 95
-1.418836 5.745655 0.755047 30 30 30 30
-0.428893 -5.935559 -0.257127 109 109 109 109
-0.686724 3.950991 0.387113 203 203 203 203
-2.353778 3.729713 1.244649 108 108 108 108
-2.802814 4.104031 -0.790249 175 175 175 175
-1.556049 -3.679229 1.004502 89 89 89 89
-1.458932 5.861142 0.732872 177 177 177 177
-1.207492 4.528145 -0.766479 204 204 204 204
0.702672 2.001352 2.379965 140 140 140 140
-1.459558 4.993621 -0.184800 172 172 172 172
0.139942 3.628104 -1.283985 123 123 123 123
-1.703621 3.086416 -0.405743 29 29 29 29
-1.694620 3.109680 -0.326588 65 65 65 65
3.336848 -2.117964 -0.419973 1 1 1 1
-1.696809 3.051413 -0.433320 197 197 197 197
-2.691707 -3.756651 1.436251 127 127 127 127
-1.800850 3.927613 0.459885 126 126 126 126
-1.756967 4.926737 1.352319 54 54 54 54
-2.066871 4.305056 0.986204 93 93 93 93
14.255825 -4.551825 -9.685287 0 0 0 0
-3.552789 -4.876321 0.086333 66 66 66 66
-1.222071 4.548015 -0.180148 84 84 84 84
-2.989209 -2.259948 -1.022268 112 112 112 112
0.643737 1.919120 2.592321 170 170 170 170
-0.915362 2.818656 -1.125185 148 148 148 148
-1.698000 3.007996 0.136036 111 111 111 111
-4.009011 -3.445976 1.054953 105 105 105 105
0.012824 3.695447 -0.763887 166 166 166 166
-3.756762 -4.829767 0.281395 36 36 36 36
2.073824 -2.647689 0.366480 140 140 140 140
-3.655774 -4.833557 0.304501 107 107 107 107
-1.718056 5.519064 0.422429 86 86 86 86
-1.714276 5.309865 -0.991172 34 34 34 34
0.725043 -5.462581 -0.409662 126 126 126 126
-1.182284 4.413399 -1.069144 149 149 149 149
-2.222369 4.064281 1.074838 71 71 71 71
3.198179 -1.722899 -0.541846 8 8 8 8
-1.649750 3.707112 0.129921 182 182 182 182
-1.106424 4.468698 -0.042955 69 69 69 69
-1.126315 4.421289 -0.270717 53 53 53 53
-0.667129 3.965636 0.321698 62 62 62 62
-1.102034 4.410008 -0.207416 226 226 226 226
-1.255358 4.605370 -0.191978 247 247 247 247
3.975988 1.071293 0.442778 186 186 186 186
-2.368164 3.385640 0.981043 104 104 104 104
-1.718851 3.079931 -0.475865 138 138 138 138
-1.281352 4.488535 0.406378 0 0 0 0
-0.709064 3.900325 0.240500 114 114 114 114
-1.856974 5.454081 -0.578340 21 21 21 21
-1.587763 5.302130 -0.583891 153 153 153 153
-2.556740 5.083756 -1.137370 48 48 48 48
-1.397937 5.459444 0.650716 195 195 195 195
-1.606397 5.297377 -0.918885 69 69 69 69
-1.399858 5.763077 0.814837 205 205 205 205
-1.771942 5.314923 0.973163 151 151 151 151
-2.335490 3.624267 1.024421 104 104 104 104
-1.224646 4.562806 -0.792863 216 216 216 216
-1.130658 4.330029 -1.112007 67 67 67 67
-0.517198 3.826651 -1.173741 142 142 142 142
2.448042 -5.766679 -0.498098 178 178 178 178
-2.183770 3.918602 1.049220 170 170 170 170
-1.114708 4.423295 -0.182416 250 250 250 250
-1.440405 4.995728 -0.041401 103 103 103 103
1.240702 -2.007799 -1.053810 36 36 36 36
-2.640212 4.513139 -0.751233 232 232 232 232
-1.508190 5.105373 -0.066024 154 154 154 154
-1.290360 5.481176 0.777199 50 50 50 50
-1.508140 5.128540 -0.166855 84 84 84 84
1.496431 3.374542 1.126723 143 143 143 143
0.892982 3.636914 0.629177 122 122 122 122
-3.349219 -4.944730 0.293860 2 2 2 2
1.058272 3.417090 -0.649910 130 130 130 130
0.572041 2.272847 2.497668 52 52 52 52
0.429844 2.186583 2.617098 63 63 63 63
0.625744 2.129689 2.517599 130 130 130 130
0.021814 -1.872402 -0.886871 151 151 151 151
1.035224 3.416012 0.057008 52 52 52 52
0.616564 2.252140 2.823956 120 120 120 120
-2.487978 5.202840 -1.021557 116 116 116 116
0.966147 2.983195 1.169522 108 108 108 108
-1.229751 4.561401 -0.214673 79 79 79 79
-1.121624 4.429465 -0.039180 40 40 40 40
-1.494037 5.039446 1.166841 150 150 150 150
-1.044388 5.892611 1.110979 126 126 126 126
-1.497725 -5.557176 -0.480042 169 169 169 169
1.051663 -5.237079 0.993914 174 174 174 174
-1.725772 5.340402 0.604942 74 74 74 74
-1.110817 4.417325 -0.201339 35 35 35 35
0.382197 -1.954593 -0.880938 131 131 131 131
2.184206 -2.427724 -0.788426 114 114 114 114
-2.950616 4.313376 2.884142 110 110 110 110
-1.625004 5.236123 -1.087568 35 35 35 35
-1.411833 4.877979 -0.264703 104 104 104 104
-1.615038 5.544201 -0.652820 79 79 79 79
-1.742329 5.325264 -1.099529 159 159 159 159
-1.750359 5.432727 -1.000569 168 168 168 168
0.210834 2.423302 0.484195 190 190 190 190
6.292227 1.029194 1.806995 136 136 136 136
-3.735771 -4.884252 0.255965 159 159 159 159
-3.096202 -3.448871 -1.079194 93 93 93 93
-1.448737 -5.543748 -1.023543 10 10 10 10
3.713394 -1.334550 -1.121513 182 182 182 182
3.694776 -1.441598 -0.865432 181 181 181 181
-1.807219 5.254514 0.994015 148 148 148 148
-1.687749 5.163269 1.359691 147 147 147 147
-1.418836 5.745655 0.755047 30 30 30 30
-1.905380 -1.216881 -0.935231 15 15 15 15
-0.267738 -5.993286 -0.172855 145 145 145 145
1.035049 3.528498 -0.638447 86 86 86 86
-2.605373 4.993480 -0.704282 99 99 99 99
-2.455572 5.457933 -1.134666 66 66 66 66
-1.147733 4.459772 -0.263489 36 36 36 36
2.947555 1.371358 -1.140910 131 131 131 131
-1.454295 5.062333 0.546284 63 63 63 63
2.250323 -2.605402 -0.419097 137 137 137 137
-0.062240 -6.052857 0.069913 149 149 149 149
0.639371 2.154478 1.513415 29 29 29 29
2.297363 -2.369808 -0.727680 151 151 151 151
-2.035948 3.244435 0.075374 28 28 28 28
-0.227500 -1.952167 -1.112455 2 2 2 2
0.930126 3.295358 1.276906 129 129 129 129
0.457269 -2.089215 -0.951187 180 180 180 180
-2.670960 4.422929 -0.743733 172 172 172 172
1.501294 -4.668783 -0.624633 152 152 152 152
-1.150634 4.462124 -0.205703 28 28 28 28
-28.257642 -73.823503 -47.404122 137 137 137 137
0.574039 -3.086842 0.546519 105 105 105 105
0.461794 -2.069184 -0.773737 191 191 191 191
-1.706010 -5.409569 -0.601996 42 42 42 42
1.735973 0.168852 -1.131272 246 246 246 246
-1.835658 -2.218603 0.605658 250 250 250 250
-3.029701 -3.407193 -1.122361 166 166 166 166
-4.112502 -3.413738 1.047230 102 102 102 102
-3.591648 -4.850298 0.187372 219 219 219 219
1.694806 -4.017965 -0.338855 142 142 142 142
-3.820824 -4.843417 0.268394 106 106 106 106
-0.988910 -3.369548 -0.742070 129 129 129 129
-3.690540 -4.825410 0.170992 140 140 140 140
1.408702 -4.847525 1.005731 142 142 142 142
19.959396 -5.424999 -14.461246 190 190 190 190
-0.513849 -4.812054 -0.332076 118 118 118 118
0.877555 -6.469469 -0.719979 155 155 155 155
-2.148684 -0.988272 -0.799579 88 88 88 88
-2.284965 -2.601960 -0.938485 253 253 253 253
1.989181 -2.300225 0.089736 148 148 148 148
2.134206 -2.483947 -0.736561 129 129 129 129
-1.702414 -5.417762 -0.670607 116 116 116 116
1.659387 -4.151990 -0.177975 138 138 138 138
2.118077 -2.343806 0.134875 160 160 160 160
-0.302378 -2.790638 -0.202179 137 137 137 137
-2.241866 -0.896175 -0.758480 149 149 149 149
2.055859 -2.314746 -1.006343 208 208 208 208
1.321046 -1.959053 -1.194431 134 134 134 134
-0.067043 -6.056704 0.062414 46 46 46 46
-4.245729 -3.385922 1.024598 84 84 84 84
17.765835 36.411124 -21.092412 155 155 155 155
-2.026750 -4.863951 -0.639228 31 31 31 31
1.678570 -3.828168 0.009945 134 134 134 134
-2.060257 -4.838687 -0.603837 197 197 197 197
-0.641973 -4.449424 -0.859152 88 88 88 88
-2.081004 -4.869143 -0.591990 27 27 27 27
-3.070392 -3.449031 -0.974725 148 148 148 148
-3.058734 -3.363903 -0.935910 181 181 181 181
-3.443658 -3.169778 0.208003 140 140 140 140
1.529608 -4.447973 -0.127141 159 159 159 159
-0.049888 -1.942069 -0.701326 29 29 29 29
0.142682 -2.416583 -1.165599 11 11 11 11
-1.527850 -3.580445 -1.050669 197 197 197 197
-1.061530 -3.414028 -0.912693 231 231 231 231
-4.139502 -3.032404 0.991034 129 129 129 129
0.129569 -2.905847 -1.026019 119 119 119 119
-2.419581 -1.050815 -1.070305 180 180 180 180
4.916034 1.564465 2.650919 17 17 17 17
-3.925989 -4.768620 0.271544 152 152 152 152
-3.835719 -4.769948 0.266253 159 159 159 159
2.561499 3.316323 1.107505 0 0 0 0
-0.137464 -1.773920 -0.855340 122 122 122 122
0.792363 -4.143910 -1.157213 150 150 150 150
-0.104470 -2.348384 -1.141903 10 10 10 10
-0.475775 -1.668719 -0.654856 164 164 164 164
-1.097853 -5.169391 -1.104374 27 27 27 27
5.042363 2.606003 -0.726037 152 152 152 152
-3.682412 -4.825822 0.296213 163 163 163 163
-3.737044 -4.804246 0.277400 50 50 50 50
-0.592033 -5.867758 -0.106861 22 22 22 22
-0.450667 -5.925517 -0.253898 149 149 149 149
-3.168756 -2.648810 -1.098907 44 44 44 44
-3.739233 -3.566850 1.010265 99 99 99 99
1.837062 0.188329 -1.154388 167 167 167 167
0.872302 -6.413043 1.039251 96 96 96 96
-1.413511 -5.555135 -0.533081 184 184 184 184
-3.670213 -4.826864 0.127121 81 81 81 81
-0.444044 -2.663299 0.592092 226 226 226 226
-0.332136 -4.257554 -0.687825 228 228 228 228
-1.294403 -1.634322 -1.129066 250 250 250 250
0.513541 -2.062129 -0.922171 206 206 206 206
-0.794259 -4.415557 -0.709302 205 205 205 205
-2.547804 -6.032951 1.044072 196 196 196 196
-2.032667 -5.193001 1.028165 55 55 55 55
-3.511328 -4.874257 0.291396 15 15 15 15
3.313227 0.687579 -1.246656 154 154 154 154
2.342825 -2.484950 -0.127422 133 133 133 133
-4.485195 -3.973811 0.852823 166 166 166 166
-4.432551 -4.079953 0.960499 133 133 133 133
0.250696 -3.434443 -0.782231 128 128 128 128
0.553087 -2.060832 -1.121174 218 218 218 218
-0.870970 -4.846483 -1.131796 167 167 167 167
0.703304 -1.979095 -0.887410 124 124 124 124
-1.700966 -5.291795 1.013781 82 82 82 82
-2.210572 -4.771973 -0.600535 224 224 224 224
2.158522 -2.674411 -0.295905 52 52 52 52
2.132079 -2.339351 -0.492621 182 182 182 182
-1.870195 -1.251557 -1.096927 239 239 239 239
-0.035818 -2.382685 -0.736693 226 226 226 226
-1.340724 -3.866256 0.614222 173 173 173 173
1.679948 -4.082202 -0.288125 65 65 65 65
0.877552 -4.651703 0.958133 109 109 109 109
-0.453189 -5.927616 -0.149496 5 5 5 5
-0.355868 -5.960532 -0.244975 92 92 92 92
2.852508 0.502883 -0.810832 43 43 43 43
0.003241 -6.074418 -0.636621 3 3 3 3
-4.683831 -4.430492 1.050128 79 79 79 79
-3.715780 -4.807564 0.152029 163 163 163 163
-4.585066 -3.993569 0.798614 99 99 99 99
4.316228 2.146621 -1.282921 232 232 232 232
-0.122866 -4.387860 -0.676136 4 4 4 4
1.453710 -4.694001 -0.606638 189 189 189 189
2.160799 -2.702205 0.363002 137 137 137 137
-0.604748 -5.872593 -0.104117 6 6 6 6
-3.061381 -3.281735 0.234017 151 151 151 151
-3.802326 -4.781535 0.268707 77 77 77 77
1.390856 -4.913457 0.978055 88 88 88 88
-4.891672 -3.483426 1.017867 115 115 115 115
0.933538 -3.205798 0.560820 225 225 225 225
1.535796 -4.457191 0.538988 155 155 155 155
-3.404105 -3.705275 1.051351 105 105 105 105
-3.248471 -2.711218 -0.429973 13 13 13 13
-0.052195 -1.937301 -1.057086 3 3 3 3
0.712320 -5.446734 -0.378992 198 198 198 198
1.630679 -4.229396 -0.324875 142 142 142 142
1.319776 -4.660359 0.655387 135 135 135 135
1.469496 -4.692332 0.474837 114 114 114 114
-2.873611 -2.541445 -0.657504 20 20 20 20
4.186599 -0.032784 0.031545 76 76 76 76
-0.358558 -1.822519 -0.873826 72 72 72 72
-4.626911 -4.071701 1.090351 137 137 137 137
1.662555 -4.136516 -0.262599 57 57 57 57
1.185488 -5.708355 0.958394 147 147 147 147
-2.227351 -1.071581 -0.825709 111 111 111 111
-3.488424 -4.890989 0.230067 20 20 20 20
-0.577847 -4.078490 -0.684924 184 184 184 184
1.588309 -4.371709 -0.144937 155 155 155 155
4.007183 -1.397736 -0.365262 203 203 203 203
-2.057421 -4.549044 1.032031 98 98 98 98
-3.605969 -4.847141 0.278220 155 155 155 155
-3.466390 -4.899048 0.317352 134 134 134 134
-3.604833 -4.846143 0.242100 229 229 229 229
0.677808 -5.044042 0.992987 113 113 113 113
12.064455 -7.735576 -10.926114 0 0 0 0
-0.512921 -4.779586 1.000176 209 209 209 209
-2.485690 -5.167445 -0.730628 198 198 198 198
0.944598 -5.491426 -0.918893 91 91 91 91
-2.413353 -5.064110 -0.729993 146 146 146 146
-2.505622 -5.224634 -0.944519 32 32 32 32
-1.085102 -5.036959 -0.784805 131 131 131 131
-1.493221 -3.560735 -0.850063 59 59 59 59
-4.303781 -3.641839 0.719115 95 95 95 95
-3.783668 -4.801584 0.246525 62 62 62 62
-4.498735 -3.904950 0.169237 127 127 127 127
2.562812 -2.577081 -0.448843 60 60 60 60
-0.978295 -2.985924 -0.820413 148 148 148 148
1.836079 -4.661666 0.544883 121 121 121 121
-1.871594 -3.146108 -0.727867 4 4 4 4
-1.440946 -3.909963 0.955151 104 104 104 104
-2.447219 -5.034331 -0.769039 2 2 2 2
-3.727383 -4.808358 0.258008 169 169 169 169
-4.299813 -3.632871 0.714856 184 184 184 184
-4.303520 -3.642394 0.718277 51 51 51 51
-2.148006 -4.512549 0.998377 83 83 83 83
3.588737 -1.475822 -0.916840 40 40 40 40
2.383716 -2.302033 0.146627 155 155 155 155
-3.749887 -4.801808 0.233357 44 44 44 44
-0.671126 -5.861787 -0.545677 185 185 185 185
-3.775261 -4.786520 0.308575 163 163 163 163
-2.862757 -3.993078 0.973858 116 116 116 116
-1.461409 -3.557313 0.600035 137 137 137 137
-0.550084 -4.099832 -0.684196 55 55 55 55
-4.485296 -3.984215 0.789141 145 145 145 145
-0.176029 -1.739217 -1.112355 186 186 186 186
-1.991040 -2.239645 0.532365 129 129 129 129
-2.424953 -2.680613 -1.130035 162 162 162 162
1.096677 -6.075904 1.014869 80 80 80 80
-0.242743 -4.352234 -0.704708 251 251 251 251
-1.382161 -3.900450 0.578631 60 60 60 60
-1.223777 1.968316 0.064092 125 125 125 125
-0.423358 -2.937133 0.604660 236 236 236 236
