122
0.534632 6.170995 2.738561 187 187 187 187
-8.442692 -1.145393 3.443542 235 235 235 235
-3.555077 -3.955672 -1.491168 143 143 143 143
-2.588616 4.896671 -2.079956 242 242 242 242
-2.681938 4.851888 -2.134614 54 54 54 54
-3.107940 4.677398 -1.508359 190 190 190 190
2.045035 0.822019 3.810420 203 203 203 203
3.973607 -2.111971 -0.004189 228 228 228 228
-4.555275 -3.953349 3.089510 54 54 54 54
-2.476670 4.947274 -2.432533 72 72 72 72
-5.368286 -4.650058 -4.824065 188 188 188 188
-1.457262 5.424037 -4.181497 124 124 124 124
-1.886196 1.756252 -4.843811 70 70 70 70
-5.624829 3.891521 0.710747 243 243 243 243
-6.923569 -4.587968 2.735922 139 139 139 139
-2.294023 5.033872 -1.630701 89 89 89 89
-2.619584 4.869670 -2.174317 225 225 225 225
-2.365647 5.007511 -2.269662 73 73 73 73
-8.762999 -5.214929 0.277498 87 87 87 87
-0.922588 5.901564 -2.590622 140 140 140 140
4.835999 10.370430 3.120049 15 15 15 15
2.483124 8.914642 3.673255 139 139 139 139
-2.690627 4.838202 -1.809015 70 70 70 70
1.673575 6.065769 -2.565671 232 232 232 232
-2.718301 4.837767 -2.093166 254 254 254 254
-1.339062 5.691142 -2.830227 138 138 138 138
-2.519036 4.925841 -2.162229 223 223 223 223
2.294183 -2.116338 3.369521 70 70 70 70
6.660332 -1.247253 0.061750 203 203 203 203
3.471252 5.688314 -4.829427 171 171 171 171
4.529449 8.582084 -4.841496 157 157 157 157
1.453473 -2.821605 -1.299471 177 177 177 177
4.916136 9.817316 3.737246 205 205 205 205
-2.507826 4.928931 -1.466878 246 246 246 246
-2.286225 5.034003 -1.803722 53 53 53 53
-1.652923 5.296836 -4.612593 191 191 191 191
2.018814 11.706603 -0.736042 146 146 146 146
1.481719 -2.599762 0.045463 192 192 192 192
5.272196 9.842058 3.173229 120 120 120 120
-2.669373 4.873045 -2.471783 243 243 243 243
1.265941 5.182859 -3.212648 254 254 254 254
5.354894 7.539265 -4.787551 234 234 234 234
0.159169 5.928914 -4.914938 69 69 69 69
-5.034237 4.062471 -3.949528 173 173 173 173
-3.030554 4.691662 -1.875726 244 244 244 244
1.792676 5.344559 -2.679407 41 41 41 41
13.984053 -31.256625 14.358755 92 92 92 92
0.847087 5.313864 -4.288660 10 10 10 10
6.297466 7.535961 1.601197 138 138 138 138
5.630950 5.351262 -4.666273 67 67 67 67
-20.527915 -8.144163 -5.483888 66 66 66 66
1.690041 10.859698 3.413798 250 250 250 250
-11.347916 7.438123 -3.855385 91 91 91 91
3.691193 5.716960 -4.780477 165 165 165 165
-0.650083 5.945713 -4.615534 131 131 131 131
4.591113 5.869035 -4.817397 130 130 130 130
0.928377 5.300149 -3.007551 231 231 231 231
-7.039734 3.616876 -4.991101 249 249 249 249
-8.572508 2.178570 -2.307629 195 195 195 195
-7.898604 -1.929039 3.337095 246 246 246 246
-15.008068 2.268966 -4.506957 179 179 179 179
-7.378903 3.361697 -2.468786 155 155 155 155
-3.654430 4.037780 -2.059192 112 112 112 112
-6.537350 -4.364808 -0.800973 84 84 84 84
5.477824 3.411271 3.828321 90 90 90 90
-3.198165 -3.834306 -4.392523 125 125 125 125
-6.952649 -6.534798 6.691263 148 148 148 148
-3.398623 -3.844844 0.541616 165 165 165 165
-14.635478 2.186002 -3.247606 181 181 181 181
5.073802 5.135653 -4.794465 164 164 164 164
-3.020098 4.687139 -1.513433 83 83 83 83
-1.288853 5.621434 -2.890460 142 142 142 142
-2.068941 5.142765 -2.374196 145 145 145 145
3.777823 0.002726 -0.067640 53 53 53 53
-10.059914 -0.475468 -0.532460 197 197 197 197
-2.360107 0.896583 -4.569055 27 27 27 27
-0.221082 2.952533 3.821989 103 103 103 103
2.895621 6.885182 3.545176 105 105 105 105
5.848466 2.958040 -4.471167 105 105 105 105
5.024312 10.026678 3.082484 117 117 117 117
-21.911000 -8.856019 -5.599850 12 12 12 12
-5.564855 3.864423 0.757226 30 30 30 30
-18.855030 -1.922053 -5.309271 255 255 255 255
-6.954400 -4.376431 2.856649 143 143 143 143
1.755279 5.977842 -2.573832 247 247 247 247
5.574449 3.206864 3.686904 70 70 70 70
1.713452 5.056221 -4.074628 2 2 2 2
9.483993 -39.769819 17.206773 89 89 89 89
-17.530828 1.263063 -3.279922 157 157 157 157
-4.973687 3.978001 0.728053 251 251 251 251
-2.731065 4.829236 -2.224285 69 69 69 69
-2.978700 4.583727 -4.776420 162 162 162 162
0.764825 5.209122 -4.670647 249 249 249 249
-3.979766 3.048710 -4.957147 92 92 92 92
-4.572935 -4.055741 3.601268 161 161 161 161
-19.793160 -2.666278 -0.943056 251 251 251 251
-3.132991 4.635316 -1.563744 246 246 246 246
-5.336645 3.979636 0.793500 28 28 28 28
-5.224726 3.919193 0.717152 244 244 244 244
1.383238 15.498882 1.552908 130 130 130 130
-6.196427 -4.593858 3.179879 142 142 142 142
-7.360477 3.712560 0.675351 242 242 242 242
6.044820 7.414344 1.396194 139 139 139 139
-6.586054 -4.655360 2.692928 98 98 98 98
-7.146510 8.341757 -3.386766 2 2 2 2
-6.131285 8.994402 -3.793068 125 125 125 125
-1.744560 5.316606 -4.908575 80 80 80 80
6.679514 -28.458490 -3.190922 157 157 157 157
-3.372478 4.456201 -4.857727 233 233 233 233
-1.431095 5.507757 0.351761 110 110 110 110
-7.399398 3.408191 -4.112955 158 158 158 158
2.041987 12.504244 -0.604350 153 153 153 153
1.932070 10.443734 -4.471793 143 143 143 143
2.431653 -2.188029 -4.619635 123 123 123 123
-3.026273 1.689165 -4.949784 254 254 254 254
1.141045 -2.780366 0.433771 120 120 120 120
-8.662335 -5.052120 -0.838106 146 146 146 146
4.818297 10.221487 3.070704 3 3 3 3
2.727813 18.675255 2.919345 173 173 173 173
2.319494 19.943910 4.292609 138 138 138 138
-15.421073 -1.874620 3.293122 40 40 40 40
-19.482525 -5.960299 2.938710 162 162 162 162
