1130
4.090954 -1.446736 0.780466 129 129 129 129
-0.819130 -5.599653 0.307037 117 117 117 117
1.223071 -1.265073 -0.404576 88 88 88 88
0.750130 -0.865213 0.839577 157 157 157 157
3.114303 -1.987591 0.833585 142 142 142 142
-5.456249 -2.758404 0.843105 84 84 84 84
-4.039846 -2.766279 0.015717 2 2 2 2
-0.157889 -0.050018 -0.369525 141 141 141 141
-4.057363 -2.782580 0.102000 104 104 104 104
-4.157500 -2.755621 0.039523 138 138 138 138
-4.079788 -2.792473 0.147519 126 126 126 126
-2.670512 -6.427744 -0.231170 208 208 208 208
-3.029921 -4.818154 -0.061277 250 250 250 250
-4.381751 -2.863089 0.833008 80 80 80 80
-4.212863 -2.709250 0.842722 8 8 8 8
-4.456460 -3.530747 0.838706 127 127 127 127
3.213481 -2.305836 0.250311 178 178 178 178
-2.719903 -3.287286 0.814916 88 88 88 88
-4.077012 -4.763385 0.431778 23 23 23 23
2.252316 -2.975027 0.323824 219 219 219 219
-3.697119 -5.441677 0.607268 239 239 239 239
-3.839414 -5.233854 0.170290 218 218 218 218
-3.801162 -4.243762 0.396176 183 183 183 183
-3.315037 -1.930528 -0.055200 228 228 228 228
-3.253718 -0.827986 0.261976 63 63 63 63
-3.449251 -1.225717 0.291043 204 204 204 204
-1.877080 -0.857048 -0.406289 226 226 226 226
7.771268 5.105998 2.340484 208 208 208 208
-0.246607 -4.925411 0.170877 191 191 191 191
-2.940699 -3.887821 0.066106 186 186 186 186
0.442952 -4.636238 0.404541 7 7 7 7
2.782337 -1.607559 -0.068969 148 148 148 148
-2.962292 -3.881714 0.013497 47 47 47 47
-3.070808 -3.973864 -0.408573 28 28 28 28
-3.119474 -4.651066 -0.387367 242 242 242 242
3.369927 -0.582335 0.891664 103 103 103 103
-1.965908 -3.864505 -0.078736 247 247 247 247
-2.813206 -5.220646 -0.070289 20 20 20 20
1.902023 -3.021924 0.188269 189 189 189 189
-2.764159 -4.729824 -0.025293 249 249 249 249
-1.934863 -4.241876 0.783118 233 233 233 233
-2.874996 -4.306284 -0.065088 213 213 213 213
-1.209223 -4.214279 0.027253 132 132 132 132
-2.996363 -3.969719 -0.086230 88 88 88 88
-1.650678 -1.476747 -0.424971 107 107 107 107
-2.042065 -0.585408 1.268093 243 243 243 243
-2.720348 -3.178361 0.185230 1 1 1 1
-1.734878 -0.881640 -0.408552 83 83 83 83
0.571446 1.210660 -0.382154 194 194 194 194
-0.430018 0.348103 0.197736 75 75 75 75
-2.941681 -3.220417 -0.097650 9 9 9 9
-2.405497 -6.649525 0.717706 16 16 16 16
-2.507185 -5.955847 0.762296 103 103 103 103
1.913028 -1.506553 0.146367 4 4 4 4
-2.066739 -6.655217 0.197633 231 231 231 231
-2.617100 -6.614264 0.215023 124 124 124 124
-2.752902 -5.127029 0.082920 128 128 128 128
-2.258960 -6.129176 -0.200664 130 130 130 130
-2.580042 -6.403869 -0.187319 190 190 190 190
0.613014 -4.388638 0.686241 218 218 218 218
-2.023658 -6.658751 0.624236 135 135 135 135
2.882901 -2.525818 0.605455 219 219 219 219
-2.390670 -6.732395 0.715464 185 185 185 185
-2.390209 -6.054374 0.746797 99 99 99 99
-2.791582 -5.195856 -0.033842 87 87 87 87
-2.495320 -6.724746 0.155239 71 71 71 71
-2.275399 -6.541762 0.604446 142 142 142 142
3.796601 -1.752219 0.826291 208 208 208 208
-2.379979 -6.534179 0.090959 129 129 129 129
-4.693865 -4.084172 0.555847 140 140 140 140
-3.867029 -1.733559 0.250556 205 205 205 205
-4.169516 -2.743932 0.022413 253 253 253 253
-3.275471 -0.796456 0.285554 203 203 203 203
-4.012820 -2.759545 -0.082268 126 126 126 126
2.007197 -1.500804 0.115592 169 169 169 169
-3.031779 -4.310110 -0.090619 247 247 247 247
-1.433760 -3.013863 -0.040011 14 14 14 14
-3.116981 -3.659521 -0.082250 123 123 123 123
-3.072768 -3.789713 -0.432401 249 249 249 249
2.231907 0.427062 0.988656 111 111 111 111
-2.920014 -3.745612 -0.090754 173 173 173 173
3.654776 -1.190918 -0.219575 8 8 8 8
-2.477859 -4.611291 0.073228 210 210 210 210
-4.668712 -3.755439 0.831814 146 146 146 146
5.986331 0.126049 0.351101 9 9 9 9
-2.161242 -0.035733 0.750977 85 85 85 85
-1.756372 -1.591119 -0.162990 35 35 35 35
-1.845986 -0.765664 0.830275 165 165 165 165
3.171860 3.680688 0.424344 33 33 33 33
1.921741 -3.265404 0.789786 152 152 152 152
-2.695102 -5.708094 0.782261 92 92 92 92
-1.637962 -5.618083 0.705961 143 143 143 143
-2.549605 -5.341591 0.299363 10 10 10 10
-0.366834 -5.251832 0.235974 29 29 29 29
-2.271624 -5.794194 0.752298 100 100 100 100
-0.938818 -5.760061 0.307533 127 127 127 127
-2.385257 -6.644540 0.755826 116 116 116 116
-2.340569 -6.840141 0.650854 251 251 251 251
-2.559019 -6.566363 -0.269086 199 199 199 199
-2.601743 -6.898769 0.182743 14 14 14 14
-2.907401 -5.066065 -0.178920 142 142 142 142
-2.407164 -6.604028 0.549791 224 224 224 224
-2.093011 -6.688429 0.628884 24 24 24 24
-2.769734 -5.576259 -0.444292 254 254 254 254
-4.102105 -4.785118 0.341612 9 9 9 9
-4.115280 -4.766388 0.315541 21 21 21 21
-3.895751 -3.489145 0.032730 213 213 213 213
-4.143522 -2.776570 0.050123 119 119 119 119
-0.787539 -4.436109 0.110414 2 2 2 2
0.442799 -3.175560 -0.078513 3 3 3 3
-1.651372 -3.228157 -0.091027 6 6 6 6
-2.448560 -4.895246 0.103682 61 61 61 61
-2.979152 -4.311714 -0.104477 249 249 249 249
4.030789 -1.520469 0.338922 161 161 161 161
-2.469801 -4.597094 0.060257 253 253 253 253
-3.057870 -3.952800 -0.439074 64 64 64 64
0.263463 -2.897806 0.127314 40 40 40 40
-2.474799 -4.657833 0.085431 124 124 124 124
-1.267760 -4.586032 -0.083448 177 177 177 177
0.529467 -4.515991 0.574329 148 148 148 148
-1.821737 -1.060690 0.817270 117 117 117 117
1.328368 -1.429168 0.871191 245 245 245 245
-2.737349 -3.179878 0.108893 4 4 4 4
1.408793 1.456193 0.137115 138 138 138 138
-1.887578 -0.989320 -0.121065 5 5 5 5
-2.715994 -3.289695 0.132488 45 45 45 45
-1.775111 -5.223360 0.391377 228 228 228 228
-2.070978 -6.115550 0.624736 240 240 240 240
-2.685253 -5.168087 0.111855 88 88 88 88
-1.715372 -4.938560 0.353826 129 129 129 129
-3.208464 -2.120058 0.237672 142 142 142 142
-3.986705 -5.019631 0.155983 159 159 159 159
-4.117104 -4.763548 0.323642 172 172 172 172
-4.038783 -4.870134 0.119570 206 206 206 206
-5.666649 -2.886791 0.772738 107 107 107 107
-3.942067 -5.258970 0.287071 127 127 127 127
-4.041982 -4.845672 0.113401 106 106 106 106
-4.756679 -2.418824 0.841269 149 149 149 149
-4.075536 -3.553282 0.058996 89 89 89 89
-4.258076 -4.569085 0.116991 149 149 149 149
-2.280400 -1.859519 0.842164 101 101 101 101
4.709836 -0.772683 0.346387 190 190 190 190
-2.953550 -3.888834 0.063455 203 203 203 203
2.510782 -2.919329 0.965088 246 246 246 246
-11.476061 -11.737761 0.495850 69 69 69 69
-2.973302 -3.869789 0.083660 13 13 13 13
-2.945413 -3.887566 0.081268 10 10 10 10
-2.418842 -4.605823 0.034368 251 251 251 251
-1.727300 -4.368363 0.516839 174 174 174 174
-2.411591 -4.612921 0.112561 65 65 65 65
-1.620560 -4.381877 0.552997 186 186 186 186
16.253389 5.871377 2.829877 170 170 170 170
-0.586728 -5.935226 0.617374 137 137 137 137
-2.662756 -4.959259 0.125775 230 230 230 230
-2.853214 -4.133320 -0.090860 145 145 145 145
-1.148137 -4.224827 -0.007490 126 126 126 126
-4.312183 -2.582689 0.744207 117 117 117 117
17.318972 14.578762 4.738599 97 97 97 97
-1.612307 -4.116465 0.800868 83 83 83 83
19.584707 16.808985 5.592045 187 187 187 187
-2.417789 -6.919916 0.166392 84 84 84 84
-2.099968 -6.104627 0.830787 60 60 60 60
-2.304452 -5.785848 0.796771 92 92 92 92
-2.366878 -6.191754 -0.264048 7 7 7 7
7.413824 1.290407 0.244065 86 86 86 86
-2.988193 -4.942685 0.806321 149 149 149 149
-2.597872 -3.856891 0.082969 55 55 55 55
-10.405847 -17.197231 1.939780 215 215 215 215
-4.196999 -4.651710 0.200748 14 14 14 14
-8.138651 -15.819345 0.334010 171 171 171 171
-4.506921 -3.469181 0.810200 185 185 185 185
-5.176249 -2.418036 0.249731 192 192 192 192
-4.013870 -2.870022 0.769133 153 153 153 153
-1.205126 -2.854094 -0.035090 46 46 46 46
-2.876108 -3.932553 0.085391 6 6 6 6
-2.938730 -3.896122 0.082510 211 211 211 211
-1.001035 -5.150414 -0.109318 18 18 18 18
-1.042056 -5.153301 -0.084515 216 216 216 216
-1.821274 -6.492493 0.363616 249 249 249 249
-1.597768 -6.321353 0.494480 126 126 126 126
0.147661 -4.823091 0.258607 188 188 188 188
-0.036769 -4.710653 0.179995 171 171 171 171
-0.729306 -5.765791 0.629048 10 10 10 10
-3.496517 -5.880150 0.644098 237 237 237 237
-4.181922 -4.673613 0.230706 1 1 1 1
-16.719689 -14.020611 1.912924 203 203 203 203
-3.425645 -1.047485 0.772679 141 141 141 141
-2.977149 -3.861186 0.009379 134 134 134 134
-0.257814 -5.051080 0.751562 102 102 102 102
3.926169 3.337229 0.981235 89 89 89 89
-0.638944 -5.232456 0.146379 103 103 103 103
0.077827 -4.856015 0.571416 4 4 4 4
1.788576 -3.273956 0.833970 159 159 159 159
-0.496776 0.071670 0.661025 125 125 125 125
-1.959704 -6.486434 0.344338 143 143 143 143
-0.310151 -1.424739 -0.050527 18 18 18 18
-2.454894 -6.694665 -0.058789 125 125 125 125
-1.631203 -5.902318 -0.071659 206 206 206 206
-8.649038 -14.780182 2.083417 193 193 193 193
-9.461183 -13.665483 0.656533 216 216 216 216
-3.463272 -5.787930 0.183590 178 178 178 178
-3.663896 -4.301479 0.400333 163 163 163 163
-19.547568 20.065679 -8.539920 68 68 68 68
-4.844732 -3.883654 0.793600 85 85 85 85
2.767420 1.554337 -0.248440 215 215 215 215
-4.925197 -3.787372 0.826843 154 154 154 154
-14.984497 21.698081 -7.506843 70 70 70 70
-17.572767 22.303469 -9.874040 128 128 128 128
-2.938832 -3.875064 0.075817 12 12 12 12
2.902882 -2.705029 0.771187 159 159 159 159
1.789683 -3.390808 0.702571 230 230 230 230
-4.822105 -3.907307 -0.380603 154 154 154 154
0.027033 -4.704126 -0.210956 157 157 157 157
-0.942961 -4.971553 0.782575 91 91 91 91
0.150507 -1.693664 -0.394327 51 51 51 51
-1.686083 -3.010727 -0.113394 232 232 232 232
-2.719033 -4.889250 -0.082665 3 3 3 3
-2.460769 -4.856304 0.095722 245 245 245 245
-0.005153 -4.941729 0.399881 137 137 137 137
-1.174430 -0.331441 0.154765 80 80 80 80
1.233771 1.076217 -0.029404 248 248 248 248
-1.591989 -3.126214 -0.046909 219 219 219 219
-1.518908 -3.122025 0.150490 161 161 161 161
-3.230191 -5.961163 0.169323 105 105 105 105
-2.082274 -6.691552 0.510032 114 114 114 114
-2.369213 -6.519404 0.310445 250 250 250 250
-2.464669 -6.523203 0.133511 5 5 5 5
-2.492441 -6.327115 -0.287381 1 1 1 1
-2.069077 -6.662778 0.245410 249 249 249 249
-2.507331 -6.317622 -0.088399 26 26 26 26
-2.307135 -6.524203 0.272940 134 134 134 134
1.586452 3.130284 0.362049 165 165 165 165
-1.181085 -5.842227 0.731015 22 22 22 22
-2.265098 -6.592905 0.676228 136 136 136 136
-1.820383 -6.005795 0.063033 3 3 3 3
-2.333176 -6.526172 0.714395 63 63 63 63
-1.883151 -0.851528 0.174598 111 111 111 111
-1.607654 -1.217240 0.720741 158 158 158 158
-1.617411 -5.892337 -0.061843 11 11 11 11
-1.592845 -5.898215 0.083388 22 22 22 22
-3.220588 -6.011649 0.681244 32 32 32 32
-0.505211 -1.356234 1.098250 0 0 0 0
-3.535526 -5.604457 0.339808 134 134 134 134
-24.919084 47.642793 -27.620617 81 81 81 81
-4.795153 -3.909690 -0.337418 1 1 1 1
0.844381 2.056379 0.218981 133 133 133 133
-0.274201 -4.101700 0.835709 100 100 100 100
-0.554441 0.273705 0.294322 96 96 96 96
3.428036 1.671541 1.034455 61 61 61 61
1.267025 -1.467726 1.244997 233 233 233 233
-2.259787 -6.553159 0.351967 40 40 40 40
-2.559186 -6.799298 0.175079 146 146 146 146
-2.558725 -6.597734 0.360280 65 65 65 65
-2.368483 -6.791661 0.468282 236 236 236 236
-0.917878 -5.708978 0.642462 250 250 250 250
-2.291676 -6.552841 0.755633 102 102 102 102
0.893226 -5.996272 0.453968 110 110 110 110
-0.378966 -5.248113 0.717488 34 34 34 34
2.958858 -2.487686 0.346275 250 250 250 250
-0.182635 -5.043510 0.764669 107 107 107 107
-2.486937 -6.780774 0.731451 76 76 76 76
-2.037075 -6.391495 0.614475 163 163 163 163
-2.439491 -6.705590 0.547906 146 146 146 146
-2.393772 -6.597884 0.366040 213 213 213 213
-2.275084 -6.826339 0.245859 133 133 133 133
-2.740227 -4.909751 0.132284 234 234 234 234
-2.776715 -0.380160 0.728405 189 189 189 189
-1.519597 -3.352176 -0.108056 94 94 94 94
5.666914 0.989070 -0.005421 254 254 254 254
-2.754004 -0.287946 0.815184 140 140 140 140
-2.219178 -3.999931 -0.433725 45 45 45 45
-5.485890 -2.581352 0.243248 175 175 175 175
-4.088587 -3.490169 0.091279 242 242 242 242
-4.057638 -3.469596 0.097488 11 11 11 11
1.863220 -1.245163 0.203613 23 23 23 23
1.293902 -1.406314 0.869744 251 251 251 251
-0.148527 -1.875879 0.076166 134 134 134 134
-0.617717 -5.442477 0.670148 196 196 196 196
2.110601 -2.416039 0.855245 250 250 250 250
-0.378625 -5.247674 0.224474 19 19 19 19
-0.901104 -5.683344 0.223066 134 134 134 134
3.060922 -0.106494 -0.376058 133 133 133 133
-2.520077 -6.752424 0.397898 190 190 190 190
-2.215326 -6.704097 0.477570 2 2 2 2
-2.144796 -6.624582 0.546484 129 129 129 129
-3.024562 -4.917967 0.805674 209 209 209 209
-4.014241 -4.583599 -0.159658 112 112 112 112
-4.045413 -4.918534 0.102781 154 154 154 154
-1.937057 -3.958680 -0.405176 4 4 4 4
-1.704687 -2.874436 -0.336259 91 91 91 91
-1.566776 -3.915535 -0.414720 215 215 215 215
-2.649482 -3.325419 0.024537 237 237 237 237
0.470449 -3.406235 0.120226 31 31 31 31
2.326291 3.532654 0.937199 233 233 233 233
-1.450119 -4.195881 -0.433117 25 25 25 25
-1.560855 -2.881314 -0.085871 4 4 4 4
-1.263109 -3.331404 -0.110814 233 233 233 233
-1.427961 -4.163325 -0.177668 141 141 141 141
6.199815 0.252886 0.851751 104 104 104 104
-1.944725 -3.945717 -0.436697 18 18 18 18
-1.248737 -4.303402 -0.434890 122 122 122 122
1.501850 1.269541 0.038326 241 241 241 241
-1.460416 -0.519076 -0.277533 72 72 72 72
-4.212990 -3.452911 0.074035 3 3 3 3
-4.112151 -3.476846 0.010596 75 75 75 75
1.370768 -1.454217 0.828871 151 151 151 151
0.139192 -2.993397 -0.052743 236 236 236 236
1.763873 -1.128220 0.826179 49 49 49 49
-1.832431 -0.915586 0.835036 54 54 54 54
3.521243 -0.512945 0.546252 16 16 16 16
-2.295948 -6.714319 0.537025 221 221 221 221
0.377743 0.942469 0.048401 160 160 160 160
-9.603983 -13.991735 0.759975 93 93 93 93
-10.958816 8.867845 -4.380336 0 0 0 0
2.038726 -3.028062 -0.404935 9 9 9 9
0.974354 -0.051925 -0.382538 99 99 99 99
-1.578838 -3.380378 -0.439722 14 14 14 14
-1.920875 -0.768287 0.133855 69 69 69 69
-1.491021 -3.542070 -0.373677 135 135 135 135
-3.796177 -3.003287 0.071599 35 35 35 35
-3.927574 -4.220690 0.825813 202 202 202 202
-5.541215 -2.459665 0.686461 193 193 193 193
3.244440 -1.597632 1.274946 118 118 118 118
0.999579 -4.019971 0.778720 71 71 71 71
1.622898 -2.517362 0.700390 132 132 132 132
3.166963 -0.390996 0.460756 44 44 44 44
-1.291848 -4.951736 0.777667 127 127 127 127
0.506996 0.928065 0.377290 99 99 99 99
5.290200 -0.361244 0.449376 104 104 104 104
-2.545375 -6.758101 0.640669 120 120 120 120
-5.237618 -2.241128 0.567522 0 0 0 0
-1.850383 -0.893198 -0.243284 123 123 123 123
0.246994 -1.789281 0.057250 19 19 19 19
1.594060 -3.309217 -0.448079 139 139 139 139
-2.598875 -2.574811 0.929764 130 130 130 130
-1.921574 -0.783303 -0.379395 23 23 23 23
0.843591 -0.342516 -0.381038 153 153 153 153
-0.257230 -0.900455 -0.084652 249 249 249 249
-1.388954 0.590466 0.299749 173 173 173 173
-1.983465 -0.881991 0.170633 96 96 96 96
-4.740778 -3.854506 0.765357 12 12 12 12
-1.631363 0.241386 0.685259 34 34 34 34
-1.479801 0.691055 0.353423 8 8 8 8
-4.154073 -2.875149 0.671742 82 82 82 82
2.644955 -2.716465 0.785992 144 144 144 144
2.345230 -1.481688 0.313116 24 24 24 24
-2.255659 -5.358092 0.301377 240 240 240 240
2.974235 1.830796 -0.255493 1 1 1 1
0.055700 -3.484448 -0.086916 141 141 141 141
-2.255318 -5.355578 0.326302 34 34 34 34
-2.232104 -6.511722 0.600607 178 178 178 178
-2.718668 -6.275011 0.002320 165 165 165 165
-0.025138 -4.819599 0.227357 172 172 172 172
-1.397555 -5.821875 0.045878 8 8 8 8
-0.140732 -4.984286 0.244494 158 158 158 158
-2.146571 -6.169960 0.085311 187 187 187 187
-2.591294 -6.450943 0.292245 130 130 130 130
0.114480 -4.631048 0.223348 75 75 75 75
2.809594 -2.433247 0.316514 218 218 218 218
-1.786218 -2.299169 0.797851 107 107 107 107
-2.622776 -5.515064 0.324503 19 19 19 19
2.211162 -1.382365 0.072278 150 150 150 150
-0.512588 -0.481814 0.030138 18 18 18 18
2.261955 -1.389924 0.368411 2 2 2 2
-1.265225 -0.796541 0.876880 95 95 95 95
2.016806 -2.191286 0.804080 134 134 134 134
0.290015 -3.571440 -0.080583 1 1 1 1
-10.171733 5.707579 1.098813 90 90 90 90
1.536738 -3.604208 0.725296 62 62 62 62
1.326284 -3.744791 0.750835 72 72 72 72
1.669375 -2.894444 0.140499 183 183 183 183
3.154340 -0.081053 0.560431 11 11 11 11
0.524165 -3.773917 0.799007 156 156 156 156
1.869804 -1.422124 0.058056 55 55 55 55
-2.787198 -1.794625 0.833793 97 97 97 97
0.479018 1.992712 -0.357513 4 4 4 4
1.294611 1.832486 0.093090 237 237 237 237
-0.740683 0.224227 0.229012 150 150 150 150
0.125433 0.971250 0.027827 223 223 223 223
1.086761 2.891747 0.543417 155 155 155 155
0.730359 1.485335 0.026521 228 228 228 228
0.392402 -3.598378 -0.054027 137 137 137 137
0.511517 -3.521378 -0.108819 132 132 132 132
2.398898 -1.801219 0.048429 93 93 93 93
1.939164 3.695962 0.786153 174 174 174 174
1.691329 1.181826 -0.122243 3 3 3 3
0.939846 -3.076898 0.189513 10 10 10 10
1.982698 -2.517361 0.833842 177 177 177 177
1.724303 1.147907 -0.039400 214 214 214 214
3.834459 -1.184255 0.016376 233 233 233 233
-15.411796 -12.375068 2.323377 61 61 61 61
-2.720672 -7.890086 0.171226 176 176 176 176
-4.626416 -3.154843 0.425566 66 66 66 66
-1.125463 -2.660526 0.790433 178 178 178 178
-1.392494 0.849332 0.281584 240 240 240 240
3.728711 1.719763 -0.191462 126 126 126 126
2.297519 -1.586718 0.527799 135 135 135 135
-12.905384 -10.511559 -3.249974 0 0 0 0
-0.825918 -4.496749 -0.337964 165 165 165 165
-0.540482 -5.407121 0.218182 44 44 44 44
-0.987613 -4.967746 -0.116143 199 199 199 199
0.334751 -4.567732 0.261376 12 12 12 12
-0.815604 -5.368078 -0.220709 1 1 1 1
-1.466290 -2.037796 0.109422 253 253 253 253
-2.240003 -6.568122 0.383108 157 157 157 157
-10.361159 -14.368306 3.087722 56 56 56 56
-8.477149 -14.896203 2.036382 213 213 213 213
-3.144485 -6.245391 0.158626 37 37 37 37
-2.868509 -6.551374 0.249051 107 107 107 107
-2.848964 -6.564393 0.176942 159 159 159 159
-15.233079 -12.118204 2.108900 77 77 77 77
-6.232026 -4.970942 -0.153624 110 110 110 110
1.472514 1.286685 0.169260 100 100 100 100
5.236920 -0.407458 0.927211 181 181 181 181
1.482724 -1.432689 0.654071 156 156 156 156
-2.167651 -5.443495 -0.251888 174 174 174 174
-2.322091 -5.533152 0.088904 2 2 2 2
-2.063602 -5.453343 -0.407319 133 133 133 133
-2.908267 -5.632821 0.778666 6 6 6 6
2.664520 1.700734 -0.242144 176 176 176 176
-1.526453 -2.747921 0.130375 111 111 111 111
-2.200695 -5.925386 0.771022 136 136 136 136
3.418849 -1.010563 -0.055409 140 140 140 140
1.653112 -3.643248 0.757099 237 237 237 237
-9.157939 -13.600285 0.474655 220 220 220 220
-29.676628 19.922970 3.071735 206 206 206 206
-3.617054 -5.500540 0.268768 13 13 13 13
-0.399056 -5.148878 0.264364 208 208 208 208
-2.876216 -5.310262 0.184530 99 99 99 99
-1.498878 -2.625074 0.367735 172 172 172 172
-1.778058 -0.761793 -0.100032 252 252 252 252
0.084585 -3.367164 0.470972 124 124 124 124
0.504723 -0.346296 -0.422897 161 161 161 161
2.493025 -1.715404 0.081762 6 6 6 6
1.956325 -3.137656 0.368869 216 216 216 216
1.822408 -1.049695 -0.290877 53 53 53 53
2.375651 -1.497645 0.332329 13 13 13 13
1.315912 -3.832017 0.455235 248 248 248 248
-3.930288 -4.784709 0.428755 91 91 91 91
-0.182374 -4.934436 0.730574 101 101 101 101
-4.349233 -3.406866 0.295181 150 150 150 150
0.184452 -3.104894 0.144344 234 234 234 234
3.398378 -0.382987 0.467875 151 151 151 151
-1.469517 -3.097527 0.218999 55 55 55 55
-4.179064 -2.606579 0.712666 211 211 211 211
-3.498722 -5.675232 0.271991 136 136 136 136
0.544451 -2.689819 -0.057860 6 6 6 6
0.303550 -2.705955 -0.056631 38 38 38 38
-1.417310 -3.081113 0.144929 244 244 244 244
1.849712 -1.431775 0.296418 90 90 90 90
2.985436 -2.324129 0.327577 158 158 158 158
1.850158 0.871406 -0.130024 8 8 8 8
2.208947 -5.173030 0.614513 187 187 187 187
-2.286307 -5.592936 0.072359 187 187 187 187
-3.075714 -5.258204 0.305269 186 186 186 186
-2.608575 -5.928968 0.210815 43 43 43 43
-0.588033 -7.350703 -0.139021 152 152 152 152
3.619501 -1.090269 -0.173010 66 66 66 66
-3.696279 -1.231469 0.276139 204 204 204 204
-2.965024 -0.509625 0.801328 128 128 128 128
-1.790967 -0.710169 -0.127853 3 3 3 3
-1.812349 -0.765427 0.275302 120 120 120 120
-1.455325 -1.643915 0.131954 126 126 126 126
-1.577859 -2.696858 0.198107 10 10 10 10
-1.101204 -3.389863 0.816528 245 245 245 245
2.389447 -1.550603 0.115864 168 168 168 168
2.271176 -1.457328 0.059230 3 3 3 3
0.572675 -2.225762 -0.041200 70 70 70 70
1.888968 -1.441431 0.399684 245 245 245 245
1.550461 0.555807 -0.348501 15 15 15 15
2.374589 3.312844 0.298901 3 3 3 3
2.441807 -1.596492 0.113850 22 22 22 22
0.458333 0.784813 0.905052 181 181 181 181
1.191120 1.134778 -0.190610 22 22 22 22
0.687908 0.735698 0.909537 95 95 95 95
1.041323 1.761414 -0.012877 40 40 40 40
0.478808 1.964973 -0.077483 2 2 2 2
0.798133 1.817798 -0.361481 79 79 79 79
0.252765 0.905100 -0.318099 253 253 253 253
0.785369 1.767065 0.145714 106 106 106 106
0.221342 0.903213 -0.289615 39 39 39 39
0.324438 0.872817 0.860832 9 9 9 9
-0.821022 0.046966 0.145832 132 132 132 132
0.530128 0.951607 -0.410741 60 60 60 60
3.247682 -2.080342 0.787679 112 112 112 112
2.886441 -2.304045 0.117157 180 180 180 180
2.488241 -1.689452 0.313832 129 129 129 129
2.387822 -1.540980 0.354574 2 2 2 2
2.870022 -2.292336 0.084010 2 2 2 2
2.875351 -2.549554 0.783939 80 80 80 80
2.884259 -2.289231 0.124406 5 5 5 5
1.062054 -4.006670 0.736933 45 45 45 45
-0.989694 -4.446345 0.111489 35 35 35 35
-0.964305 -4.415078 0.132403 194 194 194 194
4.876272 -2.194225 0.300954 137 137 137 137
2.678948 -2.309220 -0.245641 182 182 182 182
-0.619665 -5.216408 0.156069 186 186 186 186
-0.753845 1.369626 0.802391 64 64 64 64
-1.725930 -2.721921 0.822927 234 234 234 234
-1.713008 0.437218 0.732091 226 226 226 226
-1.844538 -0.843839 -0.141672 15 15 15 15
-1.439004 -2.507435 -0.095409 8 8 8 8
-1.394971 -1.588883 0.211517 137 137 137 137
2.315474 -1.456974 0.394426 168 168 168 168
0.255619 -1.851687 -0.008966 45 45 45 45
-1.567849 -2.332194 0.080544 116 116 116 116
1.971200 0.632089 -0.036309 237 237 237 237
2.257708 0.886414 -0.347197 5 5 5 5
2.672366 2.600749 -0.009349 29 29 29 29
1.844190 -1.422183 0.164147 8 8 8 8
1.759527 0.643606 -0.374777 174 174 174 174
2.603434 2.577917 0.172527 147 147 147 147
1.791330 1.180311 -0.164532 4 4 4 4
1.415581 0.756197 -0.216506 53 53 53 53
1.632376 0.673627 -0.029398 249 249 249 249
1.263356 0.816561 0.004689 243 243 243 243
1.413424 0.892084 -0.096447 65 65 65 65
1.165232 1.711495 0.113775 133 133 133 133
1.323578 3.075047 0.352946 93 93 93 93
-0.513968 0.267930 0.039948 10 10 10 10
-4.670526 4.775279 0.992389 146 146 146 146
0.450772 0.818724 0.857886 37 37 37 37
0.344041 -2.973941 -0.007418 119 119 119 119
0.676768 -3.580168 -0.385405 33 33 33 33
3.904270 1.275230 0.835711 68 68 68 68
2.405523 -1.630587 0.335721 54 54 54 54
2.687223 -2.239746 0.066112 6 6 6 6
1.859282 -1.339284 0.461848 123 123 123 123
2.007652 -3.085887 0.380855 13 13 13 13
1.307612 -3.863584 0.738761 250 250 250 250
1.912395 -2.959095 0.184294 3 3 3 3
3.240459 -1.371813 -0.044036 79 79 79 79
1.506897 -3.606280 0.241605 214 214 214 214
1.900156 -3.142877 0.309869 44 44 44 44
3.704990 -1.205928 -0.046681 72 72 72 72
-4.418625 -2.940020 0.381807 135 135 135 135
-1.507918 -2.759291 -0.105290 46 46 46 46
-2.074977 -0.022817 0.293672 165 165 165 165
1.147922 0.990091 -0.094275 64 64 64 64
6.365871 2.540984 0.420280 82 82 82 82
0.641542 -0.591513 0.867794 209 209 209 209
0.676663 1.622051 -0.001238 200 200 200 200
0.254407 0.911196 -0.317694 249 249 249 249
-1.778109 -0.963480 0.840616 59 59 59 59
-1.413798 -0.408722 -0.014844 238 238 238 238
-1.692468 0.152446 0.063880 138 138 138 138
0.449757 0.828622 0.860571 37 37 37 37
-6.166041 0.657340 -2.284762 62 62 62 62
-1.232698 -0.402114 0.495440 130 130 130 130
-0.007709 0.149864 0.610384 138 138 138 138
2.329866 -1.914767 -0.024416 61 61 61 61
3.408553 -1.549610 0.872645 101 101 101 101
2.337468 -1.546786 0.062490 50 50 50 50
2.123624 -1.634061 -0.070316 147 147 147 147
2.348415 -1.499292 0.289665 132 132 132 132
-2.502632 -6.758748 0.585423 104 104 104 104
1.424512 -0.981018 1.151173 97 97 97 97
1.899823 -1.487060 0.379295 191 191 191 191
1.578576 3.137730 0.439728 229 229 229 229
2.029819 0.941096 -0.237431 248 248 248 248
0.827114 0.750983 0.920657 150 150 150 150
2.752466 -1.188292 0.041954 2 2 2 2
2.663857 -2.552979 0.188059 2 2 2 2
2.693229 -2.744695 0.321075 142 142 142 142
2.907786 -2.576528 0.332158 59 59 59 59
2.078844 -0.361608 0.922677 218 218 218 218
0.742811 -4.076600 0.840939 164 164 164 164
2.780796 -2.423071 0.026971 157 157 157 157
2.070946 -3.115706 0.285480 51 51 51 51
1.985059 -3.070052 0.296371 33 33 33 33
2.194442 -3.063013 0.407945 132 132 132 132
2.629696 -2.289092 0.079275 136 136 136 136
1.614195 -3.492441 0.271429 122 122 122 122
-0.034541 -1.865740 0.075931 255 255 255 255
-3.109813 -5.985653 0.599307 47 47 47 47
0.225021 -3.450968 0.117413 36 36 36 36
0.678908 -3.382556 -0.085255 254 254 254 254
-2.320096 -6.668029 0.593100 163 163 163 163
0.224265 -2.248033 0.856744 232 232 232 232
0.828936 1.511799 1.842112 157 157 157 157
-1.859976 -0.964189 0.068092 1 1 1 1
-2.760107 -2.286381 0.590324 0 0 0 0
-2.591225 -3.958395 0.057598 209 209 209 209
0.052529 -2.758086 0.123605 8 8 8 8
0.227294 -1.937489 -0.066019 30 30 30 30
2.792892 -3.041777 0.822015 134 134 134 134
1.106835 -0.262765 -0.380480 84 84 84 84
1.602431 0.399531 -0.335122 118 118 118 118
1.692494 0.504367 -0.312405 95 95 95 95
1.695866 0.440377 0.089086 141 141 141 141
-0.798457 1.489580 0.776960 231 231 231 231
0.748627 -0.672728 0.880309 238 238 238 238
1.200020 2.299632 0.224597 204 204 204 204
0.838716 2.027044 -0.238061 235 235 235 235
-0.517060 0.369179 0.017608 48 48 48 48
1.773719 -1.315819 0.656303 73 73 73 73
2.770169 -2.060499 0.052740 44 44 44 44
2.366672 -1.567194 0.099151 3 3 3 3
2.618872 -1.881001 0.162090 5 5 5 5
2.525504 -2.116281 -0.034969 142 142 142 142
-2.950014 -0.550918 0.756636 71 71 71 71
1.949456 -3.235177 0.778091 18 18 18 18
3.317039 -2.656069 0.252146 13 13 13 13
2.647332 -1.861155 0.252157 3 3 3 3
3.199886 -1.694113 0.869304 147 147 147 147
1.441975 -2.522022 0.101797 15 15 15 15
-0.476607 -5.251063 0.627872 239 239 239 239
0.735294 -4.116144 0.836448 162 162 162 162
0.595626 -3.513161 -0.087401 245 245 245 245
-0.744416 -5.644243 0.823802 141 141 141 141
-2.691013 -3.852086 0.167802 4 4 4 4
-0.301197 -5.081557 0.313734 114 114 114 114
-2.774198 -0.087340 0.885946 150 150 150 150
4.350546 0.364489 0.010272 245 245 245 245
2.580993 2.577317 0.936524 18 18 18 18
-0.506722 0.240173 0.753875 199 199 199 199
1.929093 -1.515035 0.364605 154 154 154 154
2.546514 2.844937 0.219537 204 204 204 204
1.795702 -1.366436 0.261291 114 114 114 114
1.056799 1.166236 -0.072644 159 159 159 159
2.876838 -1.576732 0.013123 24 24 24 24
1.081200 2.364979 0.723279 163 163 163 163
1.863570 -1.445685 0.203239 27 27 27 27
1.819319 -1.408472 0.183521 163 163 163 163
2.239058 -1.434705 0.099747 176 176 176 176
1.829245 -1.413827 0.121945 3 3 3 3
2.475909 3.134482 0.413783 161 161 161 161
1.892979 -1.460260 0.119686 101 101 101 101
1.836307 -1.421684 0.143569 139 139 139 139
2.825261 -2.323982 0.378900 32 32 32 32
2.759545 -2.021879 0.169699 111 111 111 111
2.467708 -2.578492 -0.104341 11 11 11 11
2.319045 -1.877440 -0.176793 1 1 1 1
2.840803 -2.455022 0.281882 9 9 9 9
2.521431 -2.640059 0.045977 88 88 88 88
2.472438 -2.504692 -0.115270 72 72 72 72
2.774976 -2.225886 0.292009 115 115 115 115
2.315296 -1.894432 -0.037869 47 47 47 47
2.741182 -2.484611 0.285937 57 57 57 57
2.292136 -1.876615 -0.100733 200 200 200 200
2.436647 -1.683904 0.077086 160 160 160 160
5.320448 -0.357192 0.816046 184 184 184 184
2.312889 -1.446823 0.394979 36 36 36 36
2.359361 -1.559429 0.101489 229 229 229 229
2.883045 -1.096986 0.007720 3 3 3 3
2.367942 -3.017913 0.767202 16 16 16 16
1.966978 -3.112167 0.318028 169 169 169 169
2.279746 -2.885628 0.231815 192 192 192 192
2.206047 -3.022743 0.394099 36 36 36 36
0.590966 -4.320252 0.746455 54 54 54 54
-0.611152 -5.200000 0.089635 216 216 216 216
-3.351755 -4.602885 0.061311 236 236 236 236
0.664418 -3.515906 -0.415483 236 236 236 236
-0.063746 -4.808481 0.189447 2 2 2 2
0.533629 -2.690216 -0.079024 190 190 190 190
-0.267192 -5.186299 0.237266 210 210 210 210
2.006907 -0.956964 0.804733 46 46 46 46
-0.073082 -2.100549 0.038045 204 204 204 204
0.152999 -4.908418 0.233564 101 101 101 101
0.665455 -3.683973 -0.430636 246 246 246 246
0.274686 -2.593718 -0.035091 242 242 242 242
0.168154 -2.941941 -0.120012 42 42 42 42
0.588974 -4.271026 0.715182 127 127 127 127
1.484420 -2.464507 0.100360 173 173 173 173
-3.636527 -1.089352 -0.121229 9 9 9 9
-0.276942 0.524261 0.896028 7 7 7 7
-0.823274 -2.220955 0.870997 147 147 147 147
-1.192244 -1.436829 -0.107762 255 255 255 255
2.381545 -1.533175 0.372294 66 66 66 66
-1.597748 -1.970088 0.055032 238 238 238 238
2.263194 -1.420178 0.328657 196 196 196 196
2.242239 -1.800652 0.044555 199 199 199 199
2.008799 -1.745304 0.834878 100 100 100 100
2.311243 -1.443490 0.380972 229 229 229 229
2.237130 -1.346912 0.309396 26 26 26 26
1.809151 -1.398981 0.326740 7 7 7 7
1.834314 -1.420674 0.091861 146 146 146 146
2.398811 -1.599033 0.120851 145 145 145 145
2.405787 -1.593030 0.383653 133 133 133 133
1.544083 0.496081 -0.368435 193 193 193 193
2.071143 1.875495 0.966835 198 198 198 198
2.517948 -2.644147 0.174626 106 106 106 106
2.562862 -2.461285 -0.093619 188 188 188 188
2.410417 -2.735042 0.180196 139 139 139 139
2.509897 -2.664306 0.081432 163 163 163 163
2.378858 -2.643822 -0.102037 74 74 74 74
2.598376 -2.408908 -0.357147 173 173 173 173
1.225398 2.236578 0.191112 3 3 3 3
2.113669 -2.719350 0.016249 252 252 252 252
1.662188 2.872714 -0.056135 142 142 142 142
7.628462 1.059553 0.484189 104 104 104 104
2.474365 -2.697126 0.177580 114 114 114 114
1.657943 3.233084 -0.106724 74 74 74 74
2.955674 -2.224779 0.226807 177 177 177 177
2.723754 -1.914136 0.097021 139 139 139 139
2.120818 -3.217450 0.804042 15 15 15 15
1.942690 -3.157905 0.346587 153 153 153 153
1.909122 -2.982341 0.164298 119 119 119 119
-0.556440 0.177521 0.237765 188 188 188 188
-2.797893 -5.613603 0.375941 215 215 215 215
3.427966 -0.542757 -0.274072 43 43 43 43
-0.665572 -5.275675 0.082689 203 203 203 203
2.103352 -1.020878 0.735686 197 197 197 197
-0.652129 0.254889 -0.416098 23 23 23 23
-4.527229 -3.638105 0.154945 133 133 133 133
-2.514990 -6.666672 0.235856 207 207 207 207
-1.577776 -1.859756 0.095372 255 255 255 255
2.089731 -0.734131 -0.118294 224 224 224 224
-0.880859 1.560206 0.750938 14 14 14 14
0.878537 2.311545 0.332132 172 172 172 172
3.343254 2.842389 0.956666 140 140 140 140
1.297078 1.593560 0.168304 124 124 124 124
1.604611 3.174772 0.452548 54 54 54 54
2.101095 -1.457022 0.653760 162 162 162 162
1.952274 -1.532203 0.439765 133 133 133 133
2.573211 -2.596565 0.077216 59 59 59 59
2.399326 -2.716914 0.154714 102 102 102 102
2.987551 -2.270651 0.867958 90 90 90 90
2.980604 -2.357029 0.803858 62 62 62 62
1.699420 -3.421038 0.255709 0 0 0 0
2.999268 -2.203710 0.801270 179 179 179 179
5.724789 -0.162027 0.366032 189 189 189 189
2.221516 -1.338595 0.408986 146 146 146 146
2.315858 -2.943035 0.540397 114 114 114 114
1.962419 -3.280693 0.802715 86 86 86 86
0.928126 -2.388642 0.832661 176 176 176 176
-3.291665 -5.828108 0.759156 168 168 168 168
-0.121062 0.383405 0.152702 231 231 231 231
1.585125 -1.307908 -0.393465 147 147 147 147
-0.134383 -1.159666 0.006560 4 4 4 4
-2.637593 -6.894552 0.071826 77 77 77 77
-1.806457 -0.771232 0.087101 3 3 3 3
-3.822954 4.662867 -1.437361 41 41 41 41
1.950454 -1.513262 0.220949 133 133 133 133
2.386707 -2.697411 0.203104 145 145 145 145
0.192819 -2.576176 0.838017 234 234 234 234
-0.350334 -0.011661 -0.461455 111 111 111 111
-1.264870 -0.517145 0.130492 134 134 134 134
2.483697 -1.664466 0.301194 132 132 132 132
1.788916 -1.159722 0.067701 133 133 133 133
1.326574 -3.849774 0.467846 222 222 222 222
-4.954980 -2.220788 0.279456 173 173 173 173
0.567985 0.877855 -0.330635 191 191 191 191
-0.184307 0.031543 0.889225 214 214 214 214
-0.183697 -0.843746 -0.330892 110 110 110 110
1.723440 0.387930 0.049276 124 124 124 124
2.210609 -2.958511 0.879038 136 136 136 136
2.808606 -2.523329 0.276731 49 49 49 49
-1.727386 -0.915932 0.225076 76 76 76 76
-1.075886 -1.808886 -0.099146 254 254 254 254
-2.763831 -4.593466 0.063877 59 59 59 59
0.990400 0.906626 -0.416024 157 157 157 157
-0.107363 -0.656040 -0.403119 168 168 168 168
1.505973 -3.616741 0.242920 209 209 209 209
-2.350915 -6.621595 0.481046 17 17 17 17
-1.840008 -0.821208 0.019533 8 8 8 8
4.754986 0.506665 -0.219580 9 9 9 9
0.690723 1.771620 0.059115 218 218 218 218
0.295578 0.925948 0.839536 4 4 4 4
1.765574 3.063194 0.163146 114 114 114 114
0.590912 -4.338076 0.254970 19 19 19 19
2.407258 -2.673444 0.159084 148 148 148 148
-0.100499 -1.501496 -0.066423 16 16 16 16
0.341848 0.908302 -0.284882 195 195 195 195
-0.687135 1.362369 0.310822 187 187 187 187
3.440544 3.129250 1.042015 114 114 114 114
3.761870 0.594896 0.920511 241 241 241 241
0.854795 -2.920650 0.031308 7 7 7 7
-4.089141 -2.824922 0.732329 201 201 201 201
-0.220480 1.934602 0.152826 9 9 9 9
2.144153 3.255265 0.096564 6 6 6 6
-4.314194 -2.535429 0.523080 155 155 155 155
-1.417252 -2.727439 -0.035317 243 243 243 243
0.896108 -2.739253 -0.353840 1 1 1 1
0.406135 -2.348173 0.825192 222 222 222 222
-0.112379 -1.585683 -0.076391 170 170 170 170
-1.814639 -0.830724 0.843391 12 12 12 12
0.610481 -2.720396 -0.382222 98 98 98 98
0.445914 0.833177 0.869561 128 128 128 128
0.701408 0.916082 0.769190 88 88 88 88
-0.561371 0.155409 0.081501 220 220 220 220
3.572865 1.805600 -0.000811 9 9 9 9
1.140205 2.237911 0.205353 14 14 14 14
2.080950 -0.729940 -0.070129 116 116 116 116
2.064970 -0.756052 -0.077616 176 176 176 176
2.021963 -0.852421 -0.124239 21 21 21 21
3.068281 -0.091153 0.677078 46 46 46 46
3.158969 -0.143013 0.308469 37 37 37 37
2.023975 -0.836810 0.721367 212 212 212 212
-0.240046 -0.907324 -0.033562 242 242 242 242
0.825950 2.265445 0.170176 9 9 9 9
3.817679 1.933112 0.323915 141 141 141 141
5.221320 -0.363000 0.911136 47 47 47 47
1.826479 -3.448290 0.781327 69 69 69 69
-3.287284 -3.813058 0.826153 175 175 175 175
-3.799116 -2.574344 -0.090305 248 248 248 248
4.087563 2.100188 0.965871 135 135 135 135
3.087104 -0.149603 -0.313479 122 122 122 122
4.277991 1.770006 1.024987 134 134 134 134
-0.530483 -1.749726 0.000325 241 241 241 241
0.422781 0.834556 0.834772 2 2 2 2
3.372318 2.211771 0.132307 4 4 4 4
3.588089 1.640381 -0.373205 113 113 113 113
2.506697 2.275735 0.987020 138 138 138 138
4.602769 -0.104231 -0.298406 232 232 232 232
1.279654 -2.136404 -0.229477 182 182 182 182
2.113205 -0.745201 -0.042627 1 1 1 1
5.634969 1.108624 0.094334 206 206 206 206
1.305929 -0.456357 -0.381190 67 67 67 67
-2.673378 -3.028508 0.300203 11 11 11 11
3.681121 -0.866883 0.396867 145 145 145 145
2.639830 -2.993335 0.768840 208 208 208 208
1.958963 3.038122 -0.052380 6 6 6 6
2.028928 0.350714 0.440397 15 15 15 15
2.020081 0.352972 0.436935 183 183 183 183
2.021320 0.322855 0.464711 106 106 106 106
1.493821 -0.316914 0.783374 131 131 131 131
0.144789 1.379253 0.657623 80 80 80 80
1.389163 2.260385 0.949380 188 188 188 188
3.581708 1.597293 0.929760 76 76 76 76
2.580348 2.854754 0.803787 63 63 63 63
3.292860 1.593757 0.943024 213 213 213 213
3.020058 3.091411 0.248838 11 11 11 11
6.071548 0.023222 0.349626 65 65 65 65
6.243426 0.238199 0.817489 23 23 23 23
2.735239 -0.354420 -0.354644 246 246 246 246
-0.063631 -1.578543 -0.403844 171 171 171 171
-0.354388 -0.574640 -0.337358 102 102 102 102
1.161344 0.141389 -0.389698 180 180 180 180
2.371222 -2.297819 0.889607 101 101 101 101
1.064584 0.505468 0.910788 185 185 185 185
-0.212052 0.503232 -0.255552 27 27 27 27
-1.737996 -0.830908 -0.335990 158 158 158 158
-1.069154 -0.191416 -0.084879 215 215 215 215
-2.130681 -0.212407 -0.777947 53 53 53 53
-0.423786 0.222164 0.230587 144 144 144 144
-0.180312 0.484344 -0.351250 72 72 72 72
-0.190574 0.364725 -0.394897 107 107 107 107
1.825140 2.803106 0.075126 115 115 115 115
0.526272 0.891904 0.899974 126 126 126 126
0.604847 1.823457 0.067229 150 150 150 150
1.217033 1.453861 -0.026178 5 5 5 5
0.165906 1.371345 0.855326 160 160 160 160
1.458380 1.479573 0.160210 24 24 24 24
1.841260 2.761125 -0.065906 143 143 143 143
1.190115 1.449459 0.003389 2 2 2 2
0.934493 1.775061 0.139613 211 211 211 211
1.333500 0.660267 -0.065791 212 212 212 212
5.239326 1.803565 0.805528 15 15 15 15
5.384798 1.118965 -0.059667 175 175 175 175
2.137997 0.498702 0.475294 230 230 230 230
2.672256 2.783029 0.032450 186 186 186 186
3.211137 4.029740 0.489341 178 178 178 178
5.627163 1.207843 0.113386 147 147 147 147
3.097017 3.455578 0.254573 243 243 243 243
6.937655 0.768827 0.552926 247 247 247 247
3.012989 -0.152680 0.682380 112 112 112 112
2.355521 -0.475795 -0.076076 96 96 96 96
4.482500 -0.178816 -0.177335 4 4 4 4
2.331678 -0.615596 -0.066000 84 84 84 84
6.172052 0.218438 0.839684 146 146 146 146
2.386824 -0.618208 -0.001312 146 146 146 146
2.691475 -0.358907 -0.314120 169 169 169 169
4.465555 -0.394800 0.795225 153 153 153 153
4.932138 0.500299 0.267847 5 5 5 5
2.429186 -0.430865 -0.106044 133 133 133 133
2.408619 -0.616472 0.002904 145 145 145 145
-0.379570 -0.855887 -0.060855 245 245 245 245
0.738724 -1.301846 -0.387582 108 108 108 108
1.832815 -0.928069 -0.330725 248 248 248 248
-0.178371 -0.705751 -0.040990 150 150 150 150
0.960086 -1.736974 -0.382107 141 141 141 141
0.751910 -0.225733 -0.379590 178 178 178 178
0.680398 -1.686495 -0.366130 93 93 93 93
1.879075 -0.882897 -0.238036 9 9 9 9
0.884675 -0.176565 -0.367109 111 111 111 111
1.742143 -1.112471 -0.316631 130 130 130 130
2.309801 0.043509 0.910547 147 147 147 147
8.953072 -0.452020 2.994828 197 197 197 197
2.700281 0.180521 0.930811 134 134 134 134
0.777839 -2.914395 -0.194761 177 177 177 177
1.871928 -0.524893 0.914675 192 192 192 192
1.485357 -1.760139 0.038789 35 35 35 35
1.839051 -0.532609 0.947433 89 89 89 89
1.243285 -2.283204 -0.273890 182 182 182 182
2.065355 -0.840556 0.407528 144 144 144 144
1.240662 0.667700 0.922680 235 235 235 235
-0.241547 0.468618 0.884580 190 190 190 190
-0.644972 0.038367 0.127277 205 205 205 205
-0.924973 1.002447 0.285701 24 24 24 24
0.223529 0.844683 0.116417 10 10 10 10
0.047440 0.624622 -0.381280 108 108 108 108
-0.431371 0.142323 0.711374 103 103 103 103
-2.404234 -0.128686 -0.543898 5 5 5 5
-0.406603 0.254212 0.116496 108 108 108 108
-0.775907 -0.240575 0.234923 127 127 127 127
-2.867671 -0.645610 0.559919 151 151 151 151
0.576275 -2.301968 -0.429647 119 119 119 119
-0.259247 -1.314519 0.123806 43 43 43 43
2.091309 1.028612 0.340731 16 16 16 16
-1.967682 -1.041099 0.765729 212 212 212 212
3.492707 3.986042 1.023838 126 126 126 126
5.429250 0.851175 -0.254853 144 144 144 144
1.852572 -0.461645 0.897897 0 0 0 0
0.111019 -3.209591 -0.374308 229 229 229 229
-1.280627 -2.943518 0.163066 244 244 244 244
0.433842 -1.114804 -0.302995 133 133 133 133
3.576574 3.542395 0.897527 91 91 91 91
3.116138 -0.018268 -0.306121 43 43 43 43
1.434920 1.030700 -0.032400 4 4 4 4
0.591060 -3.358194 -0.019774 176 176 176 176
1.195729 -3.971383 0.432094 113 113 113 113
-0.732493 -5.530178 0.311488 147 147 147 147
0.717157 -3.042192 0.055789 128 128 128 128
-1.707741 0.503046 0.752090 232 232 232 232
-0.188567 -0.925464 -0.079601 168 168 168 168
-1.148320 -2.663307 0.032384 9 9 9 9
-4.806682 -3.709960 -0.111369 243 243 243 243
-0.839347 -0.703632 -0.436301 153 153 153 153
0.860343 1.544185 -0.373327 3 3 3 3
0.723043 1.722576 -0.058369 255 255 255 255
-4.606871 2.596128 -1.782598 84 84 84 84
2.439473 3.264898 0.203452 177 177 177 177
2.211192 3.315668 0.262011 204 204 204 204
2.082484 3.456683 0.971443 4 4 4 4
3.230613 2.869561 0.005749 5 5 5 5
1.608894 0.969034 0.874158 203 203 203 203
3.259385 2.936165 -0.013616 189 189 189 189
1.751316 0.473636 -0.035257 56 56 56 56
3.165265 -0.026348 0.857589 103 103 103 103
1.560701 1.359922 -0.022452 113 113 113 113
-0.785541 -5.373227 -0.025877 15 15 15 15
0.025806 -4.701572 0.200445 2 2 2 2
-1.583823 -6.108902 0.762913 5 5 5 5
-1.910118 -6.498945 0.622732 206 206 206 206
-1.130187 -3.136273 0.050640 72 72 72 72
-1.536377 -1.181684 0.858969 159 159 159 159
-0.217769 -0.619559 -0.247497 7 7 7 7
-0.152010 -1.204422 0.048280 184 184 184 184
-1.374677 -1.686542 -0.083183 1 1 1 1
-1.207100 0.844411 0.742346 198 198 198 198
-0.181128 0.428850 0.862251 149 149 149 149
0.067555 1.793321 0.045189 44 44 44 44
0.809357 1.944076 0.189864 115 115 115 115
0.669685 1.812108 -0.386315 110 110 110 110
-0.969706 1.080328 0.788933 108 108 108 108
2.162112 3.263840 0.234954 48 48 48 48
1.980367 1.948700 0.949392 187 187 187 187
0.850764 2.461397 0.819691 145 145 145 145
3.230064 3.270289 0.778655 94 94 94 94
4.725131 0.317781 0.162028 8 8 8 8
2.622383 2.793451 0.108213 171 171 171 171
3.109339 3.912083 0.499635 169 169 169 169
4.840639 0.176434 0.049192 11 11 11 11
1.226708 -1.622375 0.845773 239 239 239 239
4.462681 -0.253744 0.924194 96 96 96 96
0.886706 0.636640 0.378092 155 155 155 155
0.694159 -3.161032 0.116048 136 136 136 136
-0.216663 -0.634604 -0.244201 185 185 185 185
0.374772 -0.038627 0.547402 0 0 0 0
0.139032 1.869472 0.312520 29 29 29 29
0.760904 2.057254 0.212410 144 144 144 144
5.569260 1.201668 0.144034 139 139 139 139
-3.182594 -2.265237 0.816747 252 252 252 252
0.559393 2.278348 0.812801 201 201 201 201
1.277300 2.872421 0.327118 71 71 71 71
1.548260 2.921161 0.105435 102 102 102 102
1.926372 -1.111027 -0.283889 117 117 117 117
5.767902 -0.170628 0.668843 206 206 206 206
1.319075 -0.144124 0.891486 42 42 42 42
1.800228 -1.043238 0.131646 168 168 168 168
1.789974 -1.035757 0.188970 170 170 170 170
1.805712 -1.025095 0.452521 35 35 35 35
0.374377 -0.890812 0.892751 103 103 103 103
0.443836 -1.401561 -0.055527 27 27 27 27
-0.070358 -2.161434 -0.074472 13 13 13 13
-2.349988 -5.942297 0.287458 249 249 249 249
0.101456 -1.504335 -0.253497 4 4 4 4
-1.104547 -4.425015 0.050091 101 101 101 101
0.369370 1.732974 0.449552 47 47 47 47
2.214691 3.352172 0.286020 2 2 2 2
3.031769 2.844191 0.259643 5 5 5 5
1.167972 2.142624 0.187156 123 123 123 123
3.090433 -0.132698 0.317813 9 9 9 9
4.588532 -0.168778 -0.005793 255 255 255 255
3.241372 -0.350218 0.012547 134 134 134 134
1.485237 0.938926 -0.040101 169 169 169 169
3.869572 1.926718 0.069206 23 23 23 23
5.105978 -0.405464 0.836284 152 152 152 152
4.589086 -0.263723 0.921828 175 175 175 175
5.325949 0.723208 0.360047 128 128 128 128
1.187482 -2.304595 -0.392414 14 14 14 14
2.008164 -3.021001 0.313706 189 189 189 189
0.504359 -2.111275 -0.094982 28 28 28 28
-0.670722 -1.695148 0.867874 241 241 241 241
0.294354 -0.592660 -0.430003 87 87 87 87
0.378177 1.124109 0.428600 87 87 87 87
0.389509 1.110330 0.416078 69 69 69 69
0.659798 0.645557 0.802467 68 68 68 68
0.378716 1.700802 0.347210 62 62 62 62
1.066207 2.614552 0.814195 2 2 2 2
0.815913 2.463577 0.315499 19 19 19 19
3.032336 2.842423 0.132372 1 1 1 1
5.390593 0.662050 -0.030624 20 20 20 20
4.780671 -0.135160 -0.225490 32 32 32 32
1.826998 0.595242 -0.041094 3 3 3 3
5.704088 -0.393720 0.422567 166 166 166 166
5.748689 1.117879 0.185653 162 162 162 162
2.239210 2.267231 0.715113 136 136 136 136
3.943954 1.972055 0.073805 241 241 241 241
3.072305 2.816640 0.169268 124 124 124 124
1.779172 -1.363679 -0.244106 254 254 254 254
2.311385 -0.814652 -0.002541 111 111 111 111
1.461830 0.324409 0.558798 132 132 132 132
1.290381 -2.772462 -0.252694 15 15 15 15
1.933561 -3.060042 -0.180964 144 144 144 144
-2.612140 -6.741182 0.685827 8 8 8 8
2.103658 3.215750 0.089726 15 15 15 15
2.150638 -2.983470 0.043168 141 141 141 141
2.427740 -0.285526 -0.304747 244 244 244 244
2.236647 -0.683106 -0.095202 172 172 172 172
1.913833 -0.905040 0.876649 74 74 74 74
3.688020 2.086541 0.105578 22 22 22 22
1.309972 1.348432 -0.032647 3 3 3 3
4.331924 2.104429 0.923906 122 122 122 122
1.070887 2.605847 0.423523 173 173 173 173
5.326513 -1.129116 0.399842 240 240 240 240
4.194175 -0.204286 -0.132568 238 238 238 238
3.227045 2.638225 0.258814 252 252 252 252
2.557470 2.790327 -0.233897 123 123 123 123
2.731539 2.613774 -0.053597 237 237 237 237
2.643679 2.723113 -0.306465 187 187 187 187
3.370131 -0.493244 0.102816 238 238 238 238
2.123321 -1.065353 -0.203046 182 182 182 182
5.143084 0.244226 0.004768 252 252 252 252
3.069615 -0.153380 0.630653 90 90 90 90
1.945651 1.051328 0.904594 255 255 255 255
3.185439 -0.059772 0.911329 147 147 147 147
1.636644 2.851831 0.024016 3 3 3 3
2.694071 2.307238 0.932292 99 99 99 99
3.348270 2.920030 0.026011 209 209 209 209
0.065073 -1.519038 -0.244075 16 16 16 16
-1.779729 -1.632276 -0.232028 219 219 219 219
2.132051 3.042405 0.959535 131 131 131 131
3.061259 3.133433 0.263306 250 250 250 250
4.444662 -1.459302 0.371368 29 29 29 29
4.298062 -1.391135 -0.042158 115 115 115 115
3.587823 -0.646725 -0.076955 193 193 193 193
2.460473 -0.375686 -0.078664 104 104 104 104
5.677577 0.969857 -0.097888 106 106 106 106
4.362670 -0.139161 0.045266 13 13 13 13
5.285058 0.843526 0.229917 8 8 8 8
2.110643 -0.786823 -0.065745 209 209 209 209
0.557346 -2.061441 -0.087594 34 34 34 34
-0.937571 -5.732179 0.702457 81 81 81 81
3.190865 0.403409 0.584605 44 44 44 44
0.297084 -1.449171 -0.161654 42 42 42 42
-0.236192 0.441104 0.038477 224 224 224 224
-1.479201 -2.736597 0.096115 5 5 5 5
-0.572744 0.238348 0.180278 175 175 175 175
-0.129334 -1.518088 -0.352321 13 13 13 13
0.396232 -1.469503 -0.346663 92 92 92 92
1.485548 1.855939 0.925259 209 209 209 209
1.751989 3.350820 0.820063 243 243 243 243
1.441545 2.593596 0.967591 220 220 220 220
1.554043 2.454241 0.967575 204 204 204 204
1.265181 2.213663 0.222639 156 156 156 156
1.213971 2.196916 0.231274 48 48 48 48
3.166316 2.122342 -0.007582 234 234 234 234
3.235697 2.648820 0.255156 178 178 178 178
3.703810 1.806180 0.283673 6 6 6 6
2.967342 3.105616 0.247100 3 3 3 3
2.582935 2.865153 -0.018661 47 47 47 47
2.943486 2.379410 -0.019877 21 21 21 21
3.598843 2.048517 0.064620 200 200 200 200
2.557891 2.852302 0.005446 122 122 122 122
3.021751 -0.892572 -0.128118 244 244 244 244
2.836208 -0.663018 -0.185694 208 208 208 208
2.521946 -0.293642 -0.295134 130 130 130 130
2.646509 2.774005 0.926458 79 79 79 79
2.666731 2.727992 0.966286 170 170 170 170
4.397729 0.057348 0.135417 13 13 13 13
5.717033 1.179234 0.820288 187 187 187 187
4.399824 -1.399159 0.839693 15 15 15 15
4.736491 0.495878 -0.275586 58 58 58 58
4.437706 0.444816 -0.285097 156 156 156 156
2.569791 0.270243 0.982291 97 97 97 97
3.088773 -0.025446 0.905627 152 152 152 152
0.577895 -2.720217 -0.077858 251 251 251 251
0.688944 -3.479176 -0.363783 251 251 251 251
0.498929 -3.075880 -0.099403 254 254 254 254
0.575121 -1.958738 -0.400450 153 153 153 153
3.244097 2.649254 0.252994 224 224 224 224
0.802080 2.457941 0.813496 182 182 182 182
1.836089 2.011186 0.505322 181 181 181 181
1.512044 2.919151 0.954373 143 143 143 143
1.575795 2.879644 2.490744 131 131 131 131
2.995037 2.549656 -0.003752 9 9 9 9
3.236583 -1.230814 -0.014164 239 239 239 239
2.557026 0.228189 -0.335904 38 38 38 38
2.984877 3.186334 1.344613 143 143 143 143
4.449413 -0.409766 0.120268 197 197 197 197
6.419230 0.208196 0.537189 252 252 252 252
4.083964 -0.102602 0.026153 207 207 207 207
4.949361 -0.360186 0.975537 134 134 134 134
-0.067880 -4.979516 0.384995 218 218 218 218
1.736963 -1.234539 0.628676 47 47 47 47
0.416661 -1.388017 2.609998 136 136 136 136
0.714871 -3.564530 -0.323109 31 31 31 31
5.740911 0.954652 -0.042610 110 110 110 110
4.331579 0.320796 -0.176629 46 46 46 46
-0.219589 -1.514396 -0.299228 53 53 53 53
1.477414 -2.399734 -0.216868 13 13 13 13
3.566903 -0.634404 0.164143 30 30 30 30
2.052309 -0.986654 0.741564 9 9 9 9
-1.017845 -3.375506 0.801851 186 186 186 186
-24.100714 -25.571231 6.097381 230 230 230 230
1.944555 -1.000331 0.790451 169 169 169 169
5.907503 -0.246705 0.831411 248 248 248 248
4.109525 -3.357033 0.502161 11 11 11 11
5.396140 -0.483291 0.488398 108 108 108 108
0.632111 2.054459 0.208675 30 30 30 30
-0.512315 -0.490426 -0.430944 230 230 230 230
-0.430560 -0.687277 -0.344973 126 126 126 126
1.652289 1.041930 -0.014639 1 1 1 1
1.630155 1.297148 -0.027024 10 10 10 10
5.407242 0.677448 0.040716 123 123 123 123
2.424604 2.735661 0.516200 67 67 67 67
5.475406 0.659227 0.070886 210 210 210 210
2.397083 1.258175 0.513307 95 95 95 95
